# .PCD v0.7 - Point Cloud Data file format
VERSION 0.7
FIELDS x y z
SIZE 4 4 4
TYPE F F F
COUNT 1 1 1
WIDTH 1485
HEIGHT 1
VIEWPOINT 0 0 0 1 0 0 0
POINTS 1485
DATA ascii
-0.024171 0.16536 -0.0088048
0.026899001 0.063271001 0.044082999
0.027781 0.063284002 0.043605
0.026860001 0.064608999 0.044024002
0.026673 0.071318001 0.043818001
0.026905 0.072690003 0.044144001
0.025916001 0.071319997 0.044484001
0.024003001 0.044969998 0.039698999
-0.028415 0.17874999 -0.0059485999
-0.016917 0.16018 -0.011774
-0.026554 0.18036 -0.0077102999
-0.067916997 0.11512 -0.0093965996
-0.034671001 0.062187001 -0.013173
-0.037868001 0.10423 -0.020303
-0.063633002 0.15518001 -0.038616002
-0.045095999 0.12246 0.02557
-0.031128 0.16825999 -0.0065462999
-0.031911001 0.16825999 -0.0059138001
0.025909999 0.053472001 0.040784001
0.026546 0.069940999 0.043618999
0.025719 0.069931 0.044174999
0.02568 0.068579003 0.044096999
0.0097987996 0.063109003 0.054512002
0.012796 0.068573996 0.053619999
0.012785 0.069917001 0.053617001
0.011897 0.069902003 0.054092001
0.039055999 0.064539 0.033555999
0.038908001 0.063162997 0.033303
-0.028729999 0.1727 -0.0083451001
0.035999 0.095522001 0.036378998
0.035696998 0.096800998 0.036015
0.030610999 0.054984 0.038821001
0.029772 0.054990001 0.039363001
-0.065201998 0.154 -0.041972
0.022531999 0.10468 0.041531
0.023291999 0.10468 0.040860001
0.050508998 0.046117999 0.0032623
0.025248 0.071321003 0.045267999
0.024648 0.071332 0.046138
0.024367001 0.069941998 0.045708001
-0.077501997 0.14843 0.039926998
0.025015 0.069945 0.044914
-0.020411 0.17866001 -0.015599
-0.020399 0.17718001 -0.015593
-0.020359 0.17569999 -0.015552
-0.01918 0.17272 -0.015628999
-0.019407 0.17421 -0.015944
-0.020065 0.17273 -0.015152
-0.020260001 0.17422 -0.015419
-0.018875999 0.17124 -0.015205
-0.019758999 0.17125 -0.014717
-0.018480999 0.16978 -0.014634
-0.019428 0.16981 -0.014231
0.023995999 0.054951001 0.043324001
-0.018270001 0.16685 -0.012577
0.024320001 0.056405 0.043821
0.023342 0.054986 0.044149999
0.024592999 0.057794001 0.044218998
0.024788 0.059158001 0.044512
-0.027172999 0.1697 -0.018358
-0.027172999 0.17118999 -0.018593
-0.026155001 0.16971 -0.018702
-0.011499 0.16414 -0.015009
-0.011994 0.16410001 -0.013967
-0.011946 0.16359 -0.014675
0.021776 0.11531 0.035172999
0.020884 0.1153 0.035638001
0.016140999 0.084749997 0.051557001
-0.062688999 0.11095 0.037276
-0.062776998 0.11237 0.037156001
-0.062422 0.11383 0.037693001
-0.061811998 0.11534 0.038603
-0.061133999 0.11687 0.039616
-0.060608 0.11831 0.040376
-0.060230002 0.1198 0.040959001
-0.05996 0.12124 0.041361999
-0.059815999 0.12266 0.041583002
-0.059834 0.12408 0.04157
-0.059976 0.12549999 0.041367002
-0.060196999 0.12692 0.041055001
-0.060504999 0.12830999 0.040612999
-0.061000999 0.12972 0.039896
-0.061349001 0.13108 0.039391
-0.061705999 0.13249999 0.038881
-0.062159002 0.13389 0.038226999
-0.06267 0.13529 0.037491001
-0.062985003 0.13672 0.037002999
-0.063068002 0.13813999 0.036883999
-0.062968001 0.13958 0.037062
-0.062772997 0.14103 0.037362002
-0.062615998 0.14249 0.037625
-0.062542997 0.14392 0.037742
-0.062513001 0.14537001 0.037795
-0.062572002 0.1468 0.037721001
0.053133 0.047672 0.0062018
0.038607001 0.06177 0.032848999
-0.060809001 0.14825 0.036761001
-0.061609 0.14681 0.037354998
-0.028070999 0.17569 -0.0073454999
-0.028394001 0.17422 -0.0077938
0.030762 0.084881 0.042815
0.029809 0.084863 0.043189999
0.010811 0.081973001 0.054365002
0.012647 0.082004003 0.053502999
0.037335999 0.10599 0.027764
0.036940999 0.10732 0.027171999
-0.024179 0.15968999 -0.0017381
-0.055562999 0.038637999 0.047143999
-0.055608999 0.037236001 0.046969999
-0.054318 0.038729001 0.047187999
-0.0572 0.038056001 0.046912
-0.057151001 0.03943 0.046868
-0.037875 0.10566 -0.020187
0.034396999 0.096842997 0.037622999
0.022326 0.053598002 0.044433001
0.012746 0.067221001 0.053539999
0.029601 0.098206997 0.041203
0.01064 0.039009001 0.044914
-0.065615997 0.14867 -0.029991001
-0.064828999 0.14966001 -0.030944999
0.015985999 0.086066 0.051329002
-0.024462 0.034883998 0.047180001
-0.025095999 0.034876 0.048764002
-0.025494 0.034846 0.046992
-0.093276002 0.12275 0.011282
-0.093186997 0.1241 0.011269
-0.084898002 0.11701 -0.00077227998
-0.086000003 0.11839 -0.00079312001
-0.084858 0.1176 -0.0011223
0.038355 0.060373999 0.032467
0.035406001 0.098139003 0.035567001
0.03413 0.082218997 0.040633
0.030957 0.056428 0.039333999
0.046434 0.079262003 0.011181
0.023091 0.10339 0.042342
0.023937 0.10342 0.041811001
0.025462 0.072710998 0.045602001
0.024886999 0.072743997 0.046539001
-0.015772 0.16071001 -0.0095805004
0.021331999 0.1008 0.045069002
0.020435 0.10078 0.045526002
0.020914 0.10208 0.044452
0.020028001 0.10208 0.044929001
0.022964999 0.092886001 0.047440998
0.023708999 0.094227001 0.046748001
0.020435 0.10338 0.043761998
0.019545 0.10338 0.044232
0.019944999 0.10467 0.043047
0.016309001 0.048976999 0.044419002
0.016897 0.050471999 0.045311
0.015522 0.049017999 0.045047
-0.018878 0.16828001 -0.013466
-0.016563 0.16542 -0.01185
-0.017529 0.16542 -0.011493
0.024852 0.068593003 0.044679001
0.044803001 0.094585001 0.012162
0.045042001 0.093192004 0.013162
0.023977 0.067224003 0.045146
0.024813 0.067235999 0.044606999
-0.010869 0.16549 -0.015877999
-0.011128 0.16693 -0.016236
-0.011872 0.16692001 -0.015573
0.022495 0.11267 0.036223002
-0.011464 0.16549 -0.014991
0.02605 0.042096 0.035324
0.026660001 0.042165 0.034313001
-0.047660999 0.13557 0.0134
-0.047207002 0.13465001 0.014224
-0.061110001 0.11531 0.037854999
-0.061675999 0.11383 0.037012
-0.060350999 0.11684 0.038977999
-0.059721999 0.11833 0.03991
-0.059342001 0.11981 0.040479999
-0.059112001 0.12123 0.040826
-0.058933999 0.12267 0.041088998
-0.058929998 0.1241 0.041104998
-0.059131 0.12551001 0.040842
-0.059316002 0.12692 0.040569
-0.059558 0.12831999 0.04022
-0.060065001 0.12970001 0.039485
-0.060435001 0.13111 0.038954001
-0.060803 0.13251001 0.038428001
-0.061276998 0.13388 0.03774
-0.061859999 0.13528 0.036906
-0.062314998 0.13671 0.036224
-0.062524997 0.13812 0.035913002
-0.062357999 0.13956 0.036184002
-0.062029999 0.14103 0.036683999
-0.061802 0.1425 0.037048001
-0.061668001 0.14394 0.037246998
-0.061558001 0.14538001 0.037411999
-0.036203001 0.16829 0.00019536
-0.076903 0.14946 0.038699999
-0.037881002 0.1071 -0.020065
-0.036878001 0.10711 -0.020184999
-0.075999998 0.13985001 -0.0060991002
0.046406001 0.052581999 0.031778
-0.034148 0.033769 0.015927
-0.055628002 0.036561999 0.046808001
-0.049534 0.16398001 0.0044787
-0.050673001 0.16252001 0.0056432001
-0.053270999 0.037383001 0.046929002
-0.053208999 0.038796 0.047070999
0.017105 0.091379002 0.049461
0.048259001 0.046009 0.00038258001
0.035512999 0.079499997 0.039080001
-0.074849002 0.096437998 -0.01372
-0.073858999 0.096479997 -0.014249
0.015959 0.087402999 0.051293999
0.015961001 0.088748001 0.051311001
0.030889999 0.063276999 0.041058999
0.030942 0.064625002 0.041141
0.030127 0.064620003 0.041728999
0.054159001 0.064861 0.027274
-0.034701001 0.066636004 -0.015333
-0.033948999 0.066738002 -0.016558999
0.038098 0.058972999 0.032079
0.034419 0.099458002 0.035907
0.035087999 0.099464998 0.035098001
0.034201 0.080885999 0.040731002
0.031221 0.057817999 0.039733998
0.040762 0.10562 0.011162
0.040034 0.10701 0.011165
-0.050774001 0.1432 0.015399
-0.050988998 0.14316 0.016377
0.045759 0.089016996 0.010164
0.023498001 0.10209 0.042932
0.024346 0.10212 0.042403001
0.025638999 0.074046001 0.045839
0.025086001 0.074106 0.046824001
0.019156 0.057799 0.04868
0.059314001 0.069155 0.0091433004
-0.022586999 0.16829 -0.011785
-0.022957999 0.16684 -0.010557
-0.016488001 0.16112 -0.0081783002
-0.017115001 0.16121 -0.0073493002
0.045765001 0.079198003 0.0031965
0.049883001 0.047467999 0.00030700999
0.019174 0.060499001 0.048707999
0.043382999 0.098710001 0.0041764001
0.042874999 0.10009 0.0041732001
0.019119 0.034949001 -0.0037461999
0.015939999 0.090094998 0.051282998
0.015076 0.090080999 0.051789999
-0.018817 0.15967 -0.0063016
0.024981 0.064567 0.044831999
0.024902999 0.065902002 0.044723999
0.021190001 0.11399 0.036098
-0.042486999 0.039664999 0.043393001
-0.012493 0.16839001 -0.016493
-0.01166 0.1684 -0.017045001
-0.083609998 0.076924004 0.017635001
-0.082585 0.076241001 0.018536
-0.060772002 0.11384 0.036570001
-0.059377 0.11686 0.038626999
-0.058786001 0.11838 0.039498001
-0.058499999 0.11981 0.039933998
-0.058263998 0.12123 0.040295999
-0.058038 0.12268 0.040630002
-0.058029 0.12411 0.040662002
-0.058187999 0.12552001 0.040436
-0.058417 0.12693 0.040112
-0.058667999 0.12830999 0.039742
-0.059154 0.12973 0.039051
-0.059521999 0.13113999 0.038525999
-0.059900999 0.13253 0.037981
-0.060371 0.13389 0.037289001
-0.060954001 0.13529 0.036453001
-0.061469998 0.13669001 0.035709001
-0.061788 0.13812 0.035239
-0.061645001 0.13955 0.035443
-0.061246 0.14104 0.036083002
-0.060959 0.1425 0.036499999
-0.060794 0.14395 0.036766
-0.060704999 0.14539 0.036892999
-0.060702998 0.14683001 0.036915001
-0.064928003 0.10533 -0.015624
-0.064879999 0.10669 -0.014665
-0.063901998 0.10675 -0.01546
-0.052340999 0.040210001 0.046567999
-0.089763999 0.13655999 0.036194999
-0.089652002 0.13655999 0.037191
-0.089584 0.13793001 0.036187999
-0.058595002 0.058203999 0.0052960999
-0.03788 0.10851 -0.019758999
-0.036881 0.10851 -0.019874001
-0.052220002 0.037425 0.046760999
-0.05223 0.038835999 0.046781
-0.017488001 0.044684999 0.051761001
-0.036114 0.16222 -0.013731
-0.050147999 0.14163999 0.0033766001
-0.049812 0.14167 0.0043998999
-0.049970001 0.14012 0.0044061998
-0.053883001 0.15086 0.0254
0.054267 0.049196001 0.021203
-0.024714001 0.16105001 -0.0025257
-0.024976 0.15966 -0.0011434
-0.064092003 0.1587 -0.054625001
0.056382999 0.053877 0.023355
-0.057836 0.091219001 -0.021235
-0.058832999 0.091169998 -0.020586001
-0.057840001 0.092652999 -0.021108
0.045754001 0.049720999 0.030816
-0.018347001 0.044592001 0.052186999
0.037925001 0.057587001 0.031803001
0.034077998 0.10077 0.035418
0.034770999 0.10076 0.034674
0.034807 0.078171 0.039825
0.034864999 0.079522997 0.039916001
0.034120001 0.078183003 0.040584002
0.03421 0.079544 0.040738001
0.030537 0.059202 0.040511999
0.031431999 0.059214 0.04005
0.021919001 0.11801 0.033635002
0.022713 0.11804 0.033018999
0.045880001 0.084813997 0.013166
0.024692001 0.10082 0.042902
0.023863999 0.10081 0.043460999
0.025952 0.075433999 0.046287999
0.025356 0.075473003 0.047222
-0.022887001 0.18016 -0.012106
0.018533001 0.065880999 0.049585
-0.023382001 0.17716999 -0.012878
-0.024223 0.17569 -0.012337
-0.021873999 0.17867 -0.014178
-0.022661 0.17718001 -0.013583
-0.022544 0.17867 -0.013392
-0.021685001 0.18016 -0.013879
-0.022271 0.18015 -0.01298
-0.063598 0.15411 -0.0094809001
0.014885 0.037803002 0.044128999
0.01495 0.047502 0.044211
0.015844001 0.04752 0.043749001
0.016044 0.050507002 0.045823999
-0.021398 0.18164 -0.013458
-0.022 0.18163 -0.012576
0.013605 0.12189 0.033907
0.058796 0.055231001 0.0091696
0.055973001 0.049415 0.010194
-0.021336 0.16538 -0.0099745002
-0.022046 0.16688 -0.010983
-0.022302 0.16538 -0.0096127
-0.087535001 0.11047 0.016339
-0.087614998 0.1105 0.015342
-0.086548999 0.10907 0.015347
0.025024001 0.061882 0.044881001
-0.023303 0.042993002 0.053792998
0.015783001 0.091417 0.051068
0.01493 0.091397002 0.051589999
0.022073001 0.11399 0.035606999
-0.058327999 0.11698 0.038361002
-0.057879001 0.11838 0.039060999
-0.057544 0.11983 0.039567001
-0.057351001 0.12127 0.039859999
-0.057183001 0.12268 0.040118001
-0.057130001 0.12412 0.040206
-0.057286002 0.12553 0.039988998
-0.057528999 0.12694 0.039639998
-0.057822 0.12834001 0.039218999
-0.058258999 0.12974 0.038589999
-0.058632001 0.13113999 0.038052998
-0.059005 0.13254 0.037517
-0.059454001 0.13393 0.036869001
-0.059996001 0.13529 0.036077
-0.060621001 0.13671 0.035177
-0.060991999 0.13812 0.034637
-0.060982998 0.13955 0.034653001
-0.060539 0.14103 0.035328999
-0.060221002 0.1425 0.035822999
-0.06005 0.14393 0.036058001
-0.059928998 0.14538001 0.036251001
-0.059882 0.14683001 0.036334001
-0.059978001 0.14825 0.036206
-0.060199 0.14968 0.035889
-0.048758999 0.14421 0.0025212001
0.038440999 0.10067 0.029376
-0.051433999 0.064781003 0.034887999
-0.037886001 0.10993 -0.019154999
-0.036889002 0.10994 -0.019177999
-0.051109999 0.037537001 0.046574999
-0.051263001 0.038869001 0.046425998
-0.051364001 0.040254001 0.046261001
-0.044527002 0.060169999 0.039342001
-0.038605999 0.039292 -0.028480001
-0.039834 0.038438998 -0.02806
-0.039609 0.039228 -0.027851
-0.019864 0.18456 -0.014736
-0.0209 0.18558 -0.013976
0.026559001 0.11988 -0.0019388
0.026698001 0.11944 -0.0027158
0.025852 0.11987 -0.0031950001
0.036697 0.10397 -0.0078327004
-0.036297001 0.12623 -0.0023209001
-0.036047 0.12575001 -0.0036679001
-0.037099998 0.12616 -0.0034177999
-0.043783002 0.14771999 0.0049120998
0.056671999 0.055300999 0.023801001
0.056821 0.056680001 0.024001
0.045214999 0.048236001 0.030009
-0.0211 0.16684 -0.01139
-0.020375 0.16537 -0.010349
0.046117999 0.051157001 0.031353999
0.034437999 0.10209 0.03418
0.033748001 0.1021 0.034935001
0.031575002 0.060559001 0.040275998
0.030231999 0.037416998 2.3252e-05
0.028473999 0.038148001 -0.0016319
-0.082075 0.12994 0.051952999
0.027151 0.074097998 0.044523001
0.02805 0.074086003 0.044082001
0.027465999 0.075465001 0.045005001
0.026157999 0.076825 0.046636
0.025543001 0.076842003 0.047509
0.016688 0.047524001 0.043219
-0.020646 0.17126 -0.014238
-0.020916 0.17271 -0.014623
-0.021529 0.17126 -0.013753
-0.019316001 0.16249999 -0.0070298002
-0.020406 0.16253 -0.0068462002
-0.023190999 0.17866001 -0.012585
0.018461 0.047578 0.042256001
0.01873 0.048983 0.042660002
0.017961999 0.048994001 0.043304998
0.017579 0.047554001 0.042746998
0.021859 0.071418002 0.049182002
0.022002 0.072768003 0.049400002
0.021227 0.072778001 0.050039999
0.021623001 0.070037998 0.048827
0.021013999 0.071383998 0.049722999
0.021515001 0.079544999 0.050512999
0.022365 0.079549 0.049993999
0.021473 0.080884002 0.050466999
0.021493999 0.078193001 0.050476
0.022365 0.078206003 0.049977999
-0.022074999 0.16976 -0.012798
-0.022968 0.16976 -0.01233
0.022407999 0.080904 0.050064001
0.022160999 0.075484 0.049651999
0.022260999 0.076846004 0.049812999
0.021384999 0.075492002 0.050294001
-0.038809001 0.037255999 -0.02892
-0.092271999 0.12558 0.033259001
-0.092036001 0.12694 0.033252999
0.022042001 0.084895998 0.049566999
0.021764999 0.086202003 0.049166001
-0.058555 0.060477 0.023496
-0.058265999 0.059728999 0.021929
-0.057703 0.059126999 0.021675
0.046188999 0.079242997 0.016178999
0.046122 0.080634996 0.016170001
-0.021503 0.16391 -0.0084589003
-0.091761999 0.14198001 0.019172
0.025013 0.063225001 0.044877
-0.027787 0.083862998 -0.036068998
-0.027772 0.085226998 -0.035668001
-0.026808999 0.085298002 -0.036350001
0.024968 0.060525998 0.044787999
0.042955998 0.10012 0.014162
0.043510001 0.098719001 0.014157
-0.058088999 0.11544 0.036929999
-0.057402 0.11694 0.037967
-0.056988999 0.1184 0.038593002
-0.056705002 0.11983 0.039025001
-0.056511 0.12127 0.039324
-0.056311 0.1227 0.039627001
-0.056302998 0.12412 0.039648
-0.056455001 0.12554 0.039432
-0.056694999 0.12695 0.039094999
-0.057002999 0.12834001 0.038649999
-0.057381 0.12973 0.038107
-0.057746001 0.13113999 0.037577
-0.058118001 0.13254 0.037039999
-0.058559999 0.13394 0.036401
-0.059099 0.1353 0.035620999
-0.059684999 0.13669001 0.034768999
-0.060167 0.13812 0.034079
-0.060276002 0.13955 0.033932
-0.059974 0.14101 0.034370001
-0.059650999 0.14247 0.034862999
-0.059498001 0.14392 0.035080001
-0.059367999 0.14535999 0.035278998
-0.059255999 0.14681999 0.035507001
-0.059248 0.14825 0.035512
-0.059392001 0.14967 0.035301
-0.044422001 0.058775999 0.039291002
-0.034887999 0.033686001 0.012245
-0.034169 0.033771001 0.010509
-0.050317999 0.038895998 0.046006002
-0.050119001 0.037535001 0.046255998
-0.050462 0.040279999 0.045823999
-0.050620999 0.041653 0.045589998
-0.062383998 0.16302 -0.055604
0.014858 0.072671004 0.053126
0.056930002 0.058068998 0.024171
-0.030455999 0.15810999 0.0014598001
-0.019983999 0.18312 -0.014916
0.033386 0.10344 0.034382001
0.034079 0.1034 0.033670999
0.033969 0.076805003 0.040339001
0.034701999 0.076810002 0.039655998
0.031734999 0.061937999 0.040516
0.023149 0.11666 0.033647999
0.022326 0.11666 0.034217
-0.073555 0.10546 0.037163001
0.057254001 0.065796003 0.0022009001
0.024243999 0.099485002 0.044008002
0.025022 0.099498004 0.043375
-0.066132002 0.16237 -0.058166001
-0.067202002 0.16235 -0.056997001
0.026315 0.078201003 0.046884
0.025656 0.078225002 0.047703002
0.020119 0.057821002 0.048317
0.020217 0.059191 0.048459999
0.019200999 0.059156001 0.048751999
0.015717 0.046135001 0.043559998
0.016737999 0.046185002 0.043267
-0.037774999 0.15071 0.0013366
-0.028562 0.038242999 0.053759001
0.019613 0.050588001 0.043956999
0.01877 0.050496001 0.044475
0.020767 0.070005998 0.049352001
0.021388 0.068657003 0.048469
-0.021685001 0.1683 -0.012238
-0.022573 0.17271 -0.0135
-0.023421001 0.17273 -0.012966
-0.022365 0.17125 -0.013209
-0.023477999 0.17421 -0.013029
-0.022683 0.17421 -0.013649
0.022076 0.074114002 0.049509
0.021344 0.074138001 0.050221
0.019083001 0.071346998 0.050453998
0.020075001 0.071351998 0.050138
0.019405 0.072728001 0.050939001
0.022245999 0.083576001 0.049851
0.021302 0.083563998 0.050255001
0.018975001 0.069986999 0.050266001
0.019316001 0.083503 0.05088
-0.020593001 0.16396999 -0.0088833002
0.024125 0.060525 0.045325
-0.073198996 0.14577 -0.014855
-0.053284001 0.15087999 0.022403
-0.033587001 0.15446 -0.0083887
-0.057119999 0.11545 0.036582001
-0.056566 0.11693 0.037427999
-0.056155 0.11839 0.038047999
-0.055948 0.11983 0.038362999
-0.055764001 0.12126 0.038651999
-0.055571999 0.1227 0.038947999
-0.055553 0.12412 0.038973998
-0.055721998 0.12553 0.038739
-0.055945002 0.12694 0.038417
-0.05624 0.12835 0.037994001
-0.056589 0.12976 0.037485
-0.056915998 0.13115001 0.037023
-0.057287998 0.13255 0.036483999
-0.057681002 0.13393 0.035918999
-0.058244999 0.13534001 0.035101999
-0.058848001 0.13671 0.034224998
-0.059264001 0.13813999 0.033622
-0.059344001 0.13955 0.033516001
-0.059354 0.141 0.033503
-0.059209999 0.1424 0.033627
-0.059069 0.14387999 0.033891
-0.058961 0.14534 0.034083001
-0.058832001 0.14681999 0.034421999
-0.058680002 0.14824 0.034554001
-0.058692001 0.14968 0.034549002
-0.058226999 0.15107 0.033498
-0.058653999 0.15214001 0.033032
0.030621 0.073711 -0.020759
-0.052064002 0.072352 0.040575001
-0.051022999 0.072393999 0.040773001
-0.052354001 0.073291004 0.041473001
-0.049578998 0.046041001 -0.0092887999
-0.049112 0.036161002 0.045993
-0.049160998 0.037567999 0.045878001
-0.071721002 0.034485999 0.0058015999
-0.072373003 0.035247002 0.0070433002
-0.049357999 0.038927998 0.045641001
-0.049563002 0.040298 0.045366999
-0.049729999 0.041666999 0.045116998
-0.037732001 0.15023001 -0.0017997
-0.032315999 0.15515 0.00048754999
-0.031500001 0.15516999 -8.7241002e-05
-0.030928001 0.15662999 0.0007643
0.057105001 0.059443999 0.024441
0.05728 0.060814999 0.024711
-0.038252 0.15436 -0.0088354005
-0.037454002 0.15538999 -0.0097532002
-0.018987 0.18015 -0.017047999
0.033043999 0.10477 0.033884998
0.033712 0.10474 0.033105999
0.033702999 0.074097 0.039949
0.034561001 0.074095003 0.039425001
0.033783998 0.075442001 0.040068001
0.031753998 0.063276999 0.040573001
0.023523999 0.11536 0.034198999
0.022981999 0.11402 0.035174999
-0.090337999 0.14471 0.014154
-0.090856001 0.14471 0.015167
-0.090548001 0.14608 0.01415
0.025396001 0.098172002 0.043917
0.024599001 0.098191999 0.044520002
0.026354 0.079543002 0.046928
0.025712 0.079575002 0.047791999
-0.024692001 0.15657 -0.0040815999
0.020413 0.05212 0.045141999
0.019645 0.052120999 0.045827001
0.020942001 0.053555999 0.045922998
0.020163 0.053576 0.046560001
0.020927001 0.065895997 0.047768999
0.020352 0.067261003 0.048714001
-0.067434996 0.17115 -0.038224999
-0.022702999 0.17569 -0.01366
-0.023460001 0.17569 -0.012999
0.020346999 0.072760001 0.050528999
0.022376001 0.082241997 0.050019
0.02145 0.082235001 0.050457999
0.018995 0.044939 0.043000001
0.018704999 0.046259001 0.042583998
0.018045999 0.044911001 0.043391
-0.017795 0.16113 -0.0065736002
-0.018309001 0.16249999 -0.0073237
0.015486 0.092716999 0.050645001
0.014652 0.092699997 0.05119
-0.089923002 0.13382 0.038215
-0.090006001 0.13381 0.037214
-0.061866999 0.16562 -0.060077
-0.061471 0.16583 -0.059028
0.058853 0.056642 0.007181
-0.084477 0.085610002 0.027471
-0.084636003 0.084581003 0.026498999
-0.084349997 0.084252998 0.027402001
-0.055803999 0.11691 0.036775
-0.055395 0.11838 0.037392002
-0.055208001 0.11983 0.037682001
-0.055069 0.12128 0.037950002
-0.054852001 0.1227 0.038247999
-0.054834999 0.12411 0.038270999
-0.055036001 0.12552001 0.037973002
-0.055268999 0.12693 0.037641998
-0.055541001 0.12834001 0.037239
-0.055794999 0.12974 0.036881998
-0.056116 0.13112999 0.036426999
-0.056472 0.13254 0.035911001
-0.056914002 0.13394 0.035273001
-0.057422001 0.13534001 0.034531999
-0.058010001 0.13673 0.033679001
-0.058371998 0.13813999 0.033156998
-0.058449 0.13958 0.033054002
-0.058603 0.141 0.032832
-0.058589999 0.14242999 0.032841999
-0.058495 0.14387999 0.033009
-0.058447 0.14532 0.033094
-0.058393002 0.14676 0.033181999
-0.058208 0.14822 0.033472002
-0.058123 0.14964999 0.033636998
0.047341 0.048886001 -0.0036788001
-0.057604998 0.15107 0.032637
-0.057030998 0.15107 0.031681001
-0.018663 0.036095001 0.052526999
-0.089555003 0.092955999 0.019432999
-0.089442 0.094302997 0.019424001
-0.089417003 0.094293997 0.018425001
-0.048772998 0.034995999 0.044468999
-0.048094001 0.036215998 0.045689002
-0.049823001 0.034981001 0.044640999
-0.048138 0.037613999 0.045577001
-0.048395999 0.038961001 0.045276001
-0.04862 0.040323 0.04496
0.014003 0.091392003 0.052005999
-0.062803999 0.14410999 -0.0071800002
-0.039664 0.034051999 0.027077001
0.019522 0.082184002 0.051167998
-0.024290999 0.1062 -0.022461001
-0.023212001 0.16534001 -0.0091847004
0.057376001 0.062178999 0.024873
0.015086 0.040649999 0.044385999
0.014095 0.041997001 0.044663999
0.030847 0.075144 -0.020733999
0.031757001 0.075218998 -0.019756
0.031592 0.073801003 -0.019721
0.05734 0.063519001 0.024801999
-0.089633003 0.092955001 0.018431
-0.018061999 0.17718001 -0.017491
-0.060653001 0.15108 0.035238001
0.033372 0.10607 0.032613002
0.034538999 0.072759002 0.039388999
0.031780001 0.064773999 0.040626999
0.034603 0.075447999 0.039494
0.022668 0.11532 0.034711
0.024943 0.096886002 0.045015
0.025730999 0.096862003 0.044399999
-0.094309002 0.12145 0.016282
-0.094080999 0.12279 0.015278
0.026362 0.080898002 0.046967
0.025674 0.080912001 0.047736
0.021299001 0.055002999 0.046459999
0.020576 0.055032 0.047180999
0.021149 0.067277998 0.048108
0.020757999 0.064529002 0.047518
-0.037223998 0.16968 -0.013065
-0.036191002 0.16967 -0.013788
0.060892999 0.065125003 0.012151
0.020478999 0.082208 0.050804
0.018143 0.040803999 0.043496002
0.017306 0.042172 0.044043999
0.018270001 0.042204 0.043694999
0.018203 0.043566 0.043618001
0.017284 0.043540001 0.044015002
0.017751001 0.046234 0.042962998
0.017062999 0.044870999 0.043692999
0.01912 0.042208999 0.043180998
0.02623 0.088808 -0.022777
0.026668999 0.089215003 -0.022453999
-0.084648997 0.077825002 0.016511999
-0.085724004 0.079249002 0.016503001
-0.085722998 0.079242997 0.015505
-0.055064 0.11691 0.036091
-0.055461999 0.11543 0.035475999
-0.054722 0.11837 0.036612
-0.054505002 0.11981 0.036933001
-0.054326002 0.12125 0.037218999
-0.054102998 0.12264 0.037565999
-0.054140002 0.1241 0.037510999
-0.054345999 0.12551001 0.037207
-0.054591998 0.12691 0.036860999
-0.054820001 0.12831999 0.036534
-0.055041 0.12974 0.036214001
-0.055358998 0.13112999 0.035762001
-0.055705 0.13255 0.035257999
-0.056157999 0.13394 0.034604002
-0.056616999 0.13531999 0.033941999
-0.057139002 0.13671 0.033188999
-0.057535999 0.13815001 0.032605998
-0.057635002 0.13958 0.032474
-0.05785 0.141 0.032163002
-0.057805002 0.14244001 0.032242
-0.057666 0.14388999 0.032448001
-0.057624001 0.14533 0.032529
-0.057719 0.14676 0.032354001
-0.057711001 0.14820001 0.032404002
-0.057580002 0.14964999 0.032602999
0.0013558 0.03472 0.040341001
0.00063751999 0.034632001 0.042068999
0.00035720001 0.034756001 0.040100999
-0.049462002 0.034756999 0.043629002
-0.047068 0.03627 0.04541
-0.047095999 0.037663002 0.045348998
-0.047309998 0.039016999 0.045060001
-0.032721002 0.15434 -0.0078833001
-0.021875 0.17421 -0.014234
-0.021059999 0.17421 -0.014817
-0.021916 0.17569 -0.014274
0.032331999 0.11005 0.031103
0.032017 0.1114 0.030626001
0.031374998 0.1114 0.031473
0.019791 0.07818 0.05153
0.0198 0.076831996 0.051532
0.018903 0.068639003 0.050159998
0.018149 0.069985002 0.050840002
0.057216 0.064847 0.024658
0.024162 0.050530002 0.039976001
0.023034001 0.049070999 0.040089998
0.028313 0.075453997 0.044477001
0.028039001 0.054986998 0.040371001
0.028889 0.054977 0.039836999
0.028367 0.056382999 0.040863
0.031667002 0.11008 0.031886
0.033011001 0.10739 0.032097999
0.032375999 0.1074 0.032947
0.034426 0.071395002 0.039213002
0.033670001 0.072742 0.039886001
0.033634 0.071388997 0.039825
0.031803999 0.066151999 0.040668
0.031858999 0.067332 0.040734001
0.030949 0.065968998 0.041175
0.025017999 0.11137 0.036341999
0.02344 0.11266 0.035813998
-0.091490999 0.1337 0.01522
-0.091283001 0.1337 0.014216
-0.092154004 0.13232 0.014229
0.026021 0.095555998 0.044813
0.025225 0.095572002 0.045421999
0.026308 0.082236998 0.046914
0.025552999 0.082241997 0.04758
0.021575 0.056435999 0.046882998
0.020815 0.056441002 0.047541
0.019931 0.064521 0.048078001
0.041673001 0.081955001 0.030409001
0.041648999 0.080610998 0.030401001
-0.067763001 0.079419002 -0.017076001
-0.067773998 0.080865003 -0.017472999
-0.066766001 0.079447001 -0.017468
-0.050581001 0.044594001 -0.0094221998
0.022446999 0.037590001 0.03528
0.022606 0.037567999 0.034288999
0.023933001 0.039069999 0.035294
0.017379001 0.063157998 0.049653001
-0.022125 0.16527 -0.017299
-0.023126001 0.16527 -0.017167
0.020592 0.080720998 0.050946999
0.020818001 0.063198 0.047600001
0.019889001 0.063175 0.048018999
0.020052999 0.061855 0.048234001
0.021005001 0.061877001 0.047855001
0.021113999 0.059202 0.048004001
0.02111 0.060548998 0.048014
0.020151 0.060524002 0.048385002
0.020997999 0.057840001 0.047821
0.018998001 0.040801 0.042989001
0.011606 0.12184 0.034525
-0.026107 0.16226 -0.01503
-0.092182003 0.13234 0.015224
-0.049566001 0.044633001 -0.0098972004
-0.054364 0.11689 0.035335999
-0.054072 0.11833 0.035771001
-0.053808998 0.11979 0.036173999
-0.053568002 0.12124 0.036552001
-0.053371999 0.12261 0.03689
-0.053454001 0.12409 0.036740001
-0.053626001 0.12549999 0.036504999
-0.053876001 0.12692 0.036123998
-0.054088 0.12830999 0.035845
-0.054290999 0.12973 0.035542998
-0.054607999 0.13112999 0.035094
-0.054972 0.13253 0.034566998
-0.055443 0.13395999 0.033868
-0.055856999 0.13533001 0.033284001
-0.056363001 0.13673 0.032547999
-0.056751002 0.13816001 0.031980999
-0.056825999 0.13957 0.031893
-0.057108998 0.14099 0.031459
-0.057036001 0.14244001 0.031587999
-0.05683 0.14390001 0.031927001
-0.056839 0.14533 0.031925999
-0.056975 0.14676 0.031727001
-0.057131998 0.14819001 0.031447001
-0.057039 0.14963 0.031677999
-0.052825999 0.14934 0.02141
-0.052588001 0.14933001 0.020403
-0.053034 0.15087 0.020397
-0.046048 0.036320001 0.045125999
-0.046020001 0.037707999 0.045109998
-0.046275999 0.039066002 0.044815
0.047564998 0.055380002 0.031711001
0.032652002 0.1087 0.031585999
0.031998999 0.10874 0.032377999
0.028616 0.079533003 0.044941999
0.028524 0.080868997 0.044815
0.02777 0.080872998 0.045478001
0.028221 0.087549999 0.044431999
0.027446 0.088898003 0.045077
0.027114 0.046333 0.037179001
0.026195001 0.044918001 0.037579998
0.016507 0.091397002 0.050368
0.053872 0.066145003 0.026849
0.053516001 0.067762002 0.025978999
0.056992002 0.066154003 0.024351001
0.045924999 0.084820002 0.012171
0.031330001 0.047568001 0.032710999
0.031785 0.049045 0.033388998
0.030763 0.047628 0.033661
0.028186001 0.088890001 0.044392999
0.031018 0.11273 0.030962
0.031640999 0.11271 0.030102
0.034361999 0.067346998 0.039087001
0.033523001 0.067341 0.039627999
0.033574 0.070037998 0.039723001
0.033503 0.068683997 0.039608002
0.020701 0.040828999 0.041930001
0.020595999 0.039441999 0.041717
0.029666999 0.059177 0.041018002
0.029812999 0.060559001 0.041244999
0.029037001 0.060539 0.041875001
0.026287001 0.083573997 0.046877
0.025433 0.083570004 0.04741
0.020541999 0.074123003 0.050829001
0.028204 0.10611 0.037434001
0.028093999 0.10744 0.037276
0.027354 0.10609 0.037955001
-0.025759 0.17123 -0.011077
-0.025828 0.17272 -0.011167
-0.026591999 0.17272 -0.010509
0.031394001 0.10873 0.033294
0.015091 0.094015002 0.050069001
0.014172 0.094036996 0.050503999
-0.026559001 0.17124 -0.010475
-0.02091 0.15818 -0.0057963999
0.012948 0.072623998 0.053884
0.014012 0.072674997 0.053649001
0.015898 0.057675999 0.049206998
0.016113 0.053463999 0.047717001
-0.017475 0.18459 -0.018329
-0.018088 0.18459 -0.017454
0.015485 0.054859001 0.048588
-0.025123 0.16538 -0.0084157996
0.018375 0.087411001 0.049516
0.018083001 0.088739999 0.049114
0.017362 0.088714004 0.049812
0.017976999 0.039377999 0.043251999
0.021717999 0.063208997 0.047136001
0.021895001 0.061891999 0.047387
0.021598 0.064537004 0.046975002
0.022407001 0.070024997 0.048193
0.02165 0.065880999 0.047049001
0.015198 0.042059999 0.044539001
0.022759 0.072765 0.048730001
-0.067142002 0.16377001 -0.057034001
-0.066996001 0.1652 -0.057009999
-0.066578999 0.16377001 -0.057985
0.019146999 0.043597002 0.043217
0.018812001 0.039379001 0.042704999
-0.039051 0.1548 -0.0090565998
-0.053656001 0.11687 0.034598999
-0.053344999 0.11834 0.035073001
-0.053078 0.11979 0.035482999
-0.052820999 0.12124 0.035879999
-0.052712001 0.12267 0.036061
-0.052786998 0.12408 0.035957001
-0.052923001 0.12549999 0.035753001
-0.053109001 0.1269 0.035501
-0.053334001 0.12830999 0.035174999
-0.053544 0.12973 0.034867
-0.053888001 0.13113999 0.034361001
-0.054278001 0.13253 0.033805002
-0.054657001 0.13393 0.033261999
-0.055098001 0.13533001 0.032623999
-0.055612002 0.13673 0.031876002
-0.05593 0.13815001 0.031383
-0.056072 0.13957 0.031222001
-0.056356002 0.14099 0.030763
-0.056263998 0.14242999 0.030928999
-0.0561 0.14388999 0.031206001
-0.056113001 0.14533 0.031192999
-0.056271002 0.14676 0.030967001
-0.056508999 0.14817999 0.030633001
-0.030084999 0.17902 -0.0058964998
0.011275 0.050535999 0.049483001
-0.045074001 0.036347002 0.044805001
-0.045120999 0.037746001 0.044686999
-0.045260999 0.039108001 0.044502001
-0.022206999 0.18000001 -0.020947
-0.022204001 0.17861 -0.021258
-0.023205001 0.17861 -0.020497
0.026869999 0.044898 0.036803
0.033505 0.05494 0.035978001
0.032825001 0.054954998 0.036747999
0.032430001 0.053504001 0.03616
0.056694999 0.067437001 0.023938
-0.017174 0.16975001 -0.021526
0.056325 0.068689004 0.023417
0.055578999 0.068696998 0.024075
0.0076608001 0.061675001 0.054914001
-0.090604 0.13507999 0.015212
-0.090467997 0.13507999 0.014229
0.030418999 0.044611 0.031351
0.030865001 0.046099 0.032021001
0.029779 0.044663001 0.032196
0.032230001 0.050526001 0.034058999
0.031599 0.050565001 0.034914002
0.031184999 0.049123 0.034313999
-0.089524001 0.094286002 0.015426
0.057211999 0.050907001 0.011186
0.058053002 0.052386001 0.011181
0.058102999 0.052366 0.012181
0.060860001 0.060970999 0.013161
0.060873002 0.062355001 0.014161
0.033594999 0.066004999 0.039721999
0.034460001 0.066013999 0.039221
-0.02114 0.17569 -0.014919
0.034306999 0.057822999 0.037177999
0.034603 0.059213001 0.037625998
0.033643998 0.057817001 0.03796
0.02782 0.10877 0.036887001
0.026984001 0.10875 0.037413999
0.027225999 0.10745 0.037774
0.040628999 0.080679998 0.032398999
0.040654998 0.082032003 0.032467
0.019726999 0.080867 0.051456001
0.0089750001 0.11371 0.039478999
0.0086337999 0.11506 0.039000999
0.0080193002 0.11369 0.039859999
0.040631 0.083374999 0.032449
0.025877999 0.064583004 0.044379
-0.026248001 0.17569 -0.0099892002
-0.026505001 0.1742 -0.010382
-0.022033 0.041680999 0.053877998
0.020571001 0.046312999 0.041781999
0.020771001 0.042215001 0.042047001
-0.090291001 0.13644999 0.0152
-0.072885998 0.14805 -0.02495
0.021764999 0.057833001 0.047168002
0.017168 0.049033999 0.043910999
0.022652 0.086212002 0.048689
0.022885 0.084908001 0.049031001
0.023128999 0.083581999 0.049361002
0.02327 0.079559997 0.049547002
0.023317 0.080918998 0.049633998
0.023224 0.082254 0.049499001
0.036290001 0.076990999 -0.013826
0.036901999 0.077048004 -0.012807
0.036501002 0.075613998 -0.012786
-0.052855 0.11687 0.033989001
-0.052657999 0.11833 0.034302998
-0.052377 0.11977 0.034728002
-0.052147001 0.12121 0.035057001
-0.052072 0.12265 0.035211001
-0.052115999 0.12407 0.035130002
-0.052232001 0.12548999 0.034988001
-0.052372999 0.12691 0.034777001
-0.052572999 0.12830999 0.034515001
-0.052804001 0.12972 0.034185998
-0.053149998 0.13112999 0.033675
-0.053566001 0.13255 0.033062998
-0.053909998 0.13392 0.032586999
-0.054347001 0.13531999 0.031950001
-0.054889001 0.13675 0.031142
-0.055240002 0.13816001 0.030625001
-0.055362999 0.13957 0.030476
-0.055663001 0.141 0.029998999
-0.055571001 0.14242999 0.030161001
-0.055388 0.14387999 0.0305
-0.055431999 0.14532 0.030415
-0.05562 0.14674 0.030173
-0.055962 0.14816 0.029651999
-0.055966999 0.1496 0.029645
-0.055209 0.15119 0.028438
-0.024881 0.10587 -0.02252
-0.024868 0.10443 -0.023186
0.030786 0.076548003 -0.020806
0.031954002 0.076649003 -0.019703999
-0.033622999 0.15366 0.00033705001
-0.034441002 0.15364 0.00091038999
-0.044069 0.03641 0.044475
-0.044295002 0.039147001 0.044154
-0.044564001 0.040502999 0.043811999
-0.047465 0.13507 0.015589
-0.020284001 0.16977 -0.013726
-0.02118 0.16977 -0.013264
-0.063362002 0.16511001 -0.032455999
-0.063234001 0.16468 -0.031590998
-0.062954001 0.16469 -0.033594001
0.032634001 0.051975001 0.034653001
0.033078 0.053452998 0.035321001
0.031994998 0.052021001 0.035500001
0.023511 0.11801 0.032412998
-0.032398999 0.16974001 -0.0048727002
-0.032947998 0.16975001 -0.0039025999
0.030261001 0.046122 0.032894999
0.0018374 0.037307002 0.046379998
0.056118 0.049412001 0.011192
0.056127001 0.049405999 0.012191
0.057243001 0.050891001 0.012185
0.034492999 0.064678997 0.039257001
0.03365 0.064663999 0.039801002
0.030998999 0.068667002 0.041280001
0.031879 0.068677999 0.040782999
0.020300999 0.047637001 0.041402001
0.020822 0.043607 0.042134002
-0.025962999 0.17716999 -0.0095733004
0.023595 0.087575004 0.048312999
0.022644 0.087560996 0.048707999
-0.083968997 0.14875001 0.0041430001
-0.083881997 0.15008 0.0042045
-0.083002999 0.14872999 0.003151
0.020391 0.049044002 0.041533001
-0.025281001 0.16828001 -0.010406
-0.026416 0.16975001 -0.010281
-0.026134999 0.16824999 -0.0098920995
-0.025734 0.16680001 -0.0093101002
0.017835001 0.050512999 0.044925001
-0.013035 0.16680001 -0.021291001
-0.011808 0.16636001 -0.021338001
-0.049483001 0.13575999 0.022190999
-0.048879001 0.13486999 0.022430001
-0.049082998 0.13552 0.02139
-0.020337 0.15835001 -0.0067455
0.021850999 0.059184 0.047304001
-0.020556999 0.18311 -0.013966
-0.0208 0.18164 -0.014346
-0.021031 0.18015 -0.014724
-0.020486001 0.18455 -0.013879
-0.053544 0.038913 -0.011135
-0.053543001 0.040295999 -0.010606
-0.052561998 0.040353999 -0.010914
0.01749 0.087401003 0.049996
-0.05553 0.13748001 -0.0034904999
-0.015168 0.16083001 -0.010917
-0.052034002 0.11687 0.033413999
-0.05178 0.11548 0.033785999
-0.051920999 0.11832 0.033604
-0.051645 0.11978 0.034033999
-0.051419999 0.12119 0.034375001
-0.05139 0.12263 0.034437999
-0.051431 0.12406 0.034407001
-0.051546998 0.12548 0.034216002
-0.051642001 0.1269 0.034088001
-0.051848002 0.12831999 0.033783998
-0.052092001 0.12973 0.033445001
-0.052418001 0.13112 0.032986
-0.052815001 0.13254 0.032386001
-0.053204998 0.13393 0.031835001
-0.053642999 0.13533001 0.031199001
-0.054168999 0.13672 0.030441999
-0.054566 0.13815001 0.02984
-0.054671999 0.13957 0.029705999
-0.054938 0.14099 0.029301001
-0.054962002 0.14241999 0.029276
-0.054821 0.14387 0.029539
-0.05486 0.1453 0.029514
-0.054421999 0.14466999 0.028417001
-0.055098001 0.14672001 0.029184001
-0.055466 0.14959 0.028641
-0.054853 0.14958 0.027690999
0.041678 0.10286 0.015161
-0.068366997 0.14719 -0.028067
-0.016396999 0.033730999 -0.02279
-0.017437 0.033689 -0.022956001
-0.016752001 0.033659998 -0.024675
-0.015712 0.033700999 -0.024513001
-0.043322001 0.039186999 0.043839
-0.043545 0.040541999 0.043506999
-0.043697 0.041912999 0.043276999
-0.090058997 0.13644999 0.014202
0.029276 0.043155 0.031436
0.028671 0.043242998 0.032357998
0.060755 0.066499002 0.013153
0.060876001 0.065122999 0.014156
0.029750001 0.046204999 0.033939999
0.029261 0.044750001 0.033236999
0.026796 0.11139 0.035402998
0.026271001 0.11273 0.034651998
0.025867 0.11142 0.035829999
0.060013 0.063658997 0.0071489001
-0.036789 0.15648 -0.010544
-0.038066 0.15626 -0.010236
-0.038061 0.15775999 -0.011216
-0.016923999 0.18163 -0.019313
-0.016918 0.18311 -0.019301999
0.037787002 0.037719999 0.014275
0.037064001 0.037639 0.016031001
0.036435001 0.037099998 0.014563
0.042969 0.069628 0.026865
-0.053746998 0.076817997 -0.019226
-0.052751999 0.076824002 -0.019066
0.054605 0.047814999 0.012201
0.03441 0.063317001 0.039124999
0.040665999 0.10563 0.012164
0.04132 0.10427 0.012164
0.031923998 0.070031002 0.040862001
0.02599 0.10876 0.037748002
0.025513001 0.11008 0.037071001
-0.01217 0.16548 -0.014243
-0.012883 0.16545001 -0.01351
-0.021772999 0.17273 -0.014101
0.018369 0.072706997 0.051185001
0.018741 0.074096002 0.051748
0.023562999 0.086259 0.048331998
-0.090283997 0.13783 0.015196
-0.090048999 0.13782001 0.014199
0.026315 0.084927 0.046936002
0.025389999 0.084928997 0.047403999
0.016832 0.092698 0.049070999
0.017357999 0.094034001 0.048076998
0.018639 0.052055001 0.046107002
0.021931 0.060550999 0.047433998
0.022638001 0.071408004 0.048542999
0.022605 0.099489003 0.045148
0.022193 0.10078 0.044546999
0.023235001 0.096877001 0.046069998
-0.015151 0.041951999 0.051541001
0.023871001 0.092905998 0.046992
0.024075 0.091574997 0.047269002
0.024525 0.087596998 0.047911
0.024367001 0.088921003 0.047681
0.024223 0.09025 0.047481
-0.02747 0.05068 -0.024396
-0.051208999 0.1183 0.032871999
-0.050903998 0.11977 0.033348002
-0.050733 0.1212 0.033597998
-0.050726 0.12262 0.033603001
-0.050793 0.12404 0.033549
-0.050902002 0.12547 0.033365
-0.050935999 0.1269 0.033337999
-0.051116999 0.12830999 0.033094
-0.051366001 0.12971 0.032749001
-0.051708002 0.13112 0.032241002
-0.052079 0.13252001 0.031704001
-0.052517001 0.13393 0.031067001
-0.052958 0.13533001 0.030427
-0.053938001 0.13813999 0.028968001
-0.054069001 0.13955 0.028819
-0.054320998 0.14098001 0.028416
-0.054418001 0.1424 0.028289
-0.054393001 0.14384 0.028434999
-0.054132 0.14305 0.027425
-0.053792 0.14158 0.027381999
0.031826001 0.090297997 0.042642001
0.031615 0.091614999 0.042337
0.030878 0.090278998 0.043076001
0.027047999 0.080881998 0.046204999
0.02706 0.079539001 0.046213999
-0.093887001 0.12827 0.019244
-0.0053452998 0.042334002 0.048170999
0.040594 0.084714003 0.032423001
0.016749 0.087410003 0.050685
-0.06899 0.15634 -0.001302
-0.069527 0.15622 -3.7025002e-05
-0.068218 0.15577 -0.0010122
0.021723 0.12069 0.031585
0.020868 0.12112 0.031677
-0.028632 0.15919 -0.012861
0.035025001 0.053350002 0.032850999
0.035399999 0.054813001 0.033415999
-0.083975002 0.080481 0.022500999
-0.084619001 0.080553003 0.021476001
0.030195 0.047685999 0.034611002
-0.021325 0.044468001 0.053142998
0.011121 0.090823002 -0.03039
0.010183 0.089337997 -0.031228
0.010128 0.091158003 -0.030580999
-0.028871 0.17123 -0.0085517
0.030238001 0.072704002 0.041955002
0.02911 0.071314 0.042068001
-0.055702001 0.069374003 -0.014345
-0.054703001 0.069349997 -0.014235
-0.054683998 0.067847997 -0.012812
-0.0097278999 0.16665 -0.018676
-0.010487 0.16694 -0.017085999
-0.010551 0.16508999 -0.017749
0.030385001 0.098223001 0.040582001
0.035564002 0.088923 0.039244
0.011905 0.071189001 0.054076999
0.045467 0.076117001 0.021624999
0.019540001 0.067250997 0.049298
0.043037001 0.070986003 0.026959
0.045804001 0.083414003 0.016171001
0.045976002 0.082020998 0.016170001
0.034292001 0.061956 0.038947999
0.033596002 0.063311003 0.039747
0.059009001 0.055264998 0.010176
0.031828001 0.071365997 0.040722001
0.026322 0.10742 0.038206998
-0.013346 0.16834 -0.01598
-0.012566 0.16404 -0.013093
-0.012691 0.16690999 -0.015011
-0.01451 0.17128 -0.017664
-0.014903 0.17274 -0.018231001
-0.015214 0.17421 -0.018671
-0.016044 0.17421 -0.018115999
-0.015784999 0.17275 -0.017746
-0.035096999 0.16074 -0.013448
0.018394999 0.064529002 0.049378
0.025638999 0.092917003 0.046011999
0.026456 0.092917003 0.045433
0.025481001 0.094245002 0.045788001
0.026287001 0.094237998 0.045194
0.025772 0.091577999 0.046195
0.026582999 0.091577999 0.045609999
0.026296001 0.086268 0.046920002
0.025432 0.086263999 0.047437999
0.026147 0.087595001 0.046714
0.025355 0.087598003 0.047334999
0.020842001 0.1047 0.042599
0.021321001 0.10339 0.043288998
-0.036173001 0.15272 -0.0067750998
-0.035360001 0.15263 -0.0061972998
0.023426 0.099486999 0.044581998
0.023824001 0.098183997 0.045155
0.022213001 0.1034 0.042817
0.022621 0.10209 0.043411002
0.023024 0.10079 0.044
0.021724001 0.10469 0.042117
-0.027607 0.048822001 -0.024621001
-0.028558001 0.048864 -0.023853
-0.026633 0.050556999 -0.025730001
-0.050395999 0.1183 0.032287002
-0.050156001 0.11976 0.032673001
-0.050000001 0.1212 0.032908998
-0.050028998 0.1226 0.032839999
-0.050177999 0.12403 0.032676999
-0.050223 0.12546 0.032639999
-0.05023 0.12688001 0.032632001
-0.050445002 0.1283 0.032315999
-0.050728999 0.12970001 0.031897001
-0.050988998 0.1311 0.031541999
-0.051364001 0.13249999 0.031005999
-0.051989999 0.13557 0.028655
-0.053335998 0.13812 0.028077999
-0.053543001 0.13953 0.027829001
-0.053702999 0.14094999 0.027605001
-0.029211 0.15665001 -0.00027081999
-0.030091001 0.15662 0.00021585
0.035192002 0.06735 0.038529001
-0.020984 0.15964 -0.0041509001
0.035425 0.075452998 0.038927
0.027779 0.082221001 0.045515999
-0.017105 0.17569 -0.017876999
0.035471 0.086222999 0.039085999
-0.049276002 0.14308 0.0043547
-0.049488999 0.14312001 0.0033845999
-0.048145998 0.14427 0.0034203001
0.012878 0.053452 0.050080001
0.018632 0.082175002 0.051642001
0.018906999 0.080866002 0.052033
-0.0097957002 0.17878 -0.027773
-0.0095795002 0.1772 -0.026826
0.036940999 0.099394999 0.032522999
0.036646001 0.10074 0.032054
0.037206002 0.098086998 0.032864999
0.034683 0.051918998 0.032336
0.037475999 0.096762002 0.033256002
0.030569 0.049155999 0.035174999
-0.087719001 0.10502 0.015364
0.040243 0.097092003 -0.0058299
0.039962001 0.098484002 -0.0058133998
0.040491 0.098526999 -0.0048270999
0.043115001 0.072356999 0.027123
0.045543998 0.077486999 0.021721
0.032373998 0.10476 0.034697
-0.031006999 0.12459 0.020254999
-0.030497 0.17271 -0.0056138001
-0.030207001 0.17422 -0.0051449998
-0.091989003 0.12418 0.042206999
-0.092367001 0.1242 0.041188002
0.051711999 0.048145998 0.023572
0.052253 0.049587999 0.024355
-0.055688001 0.067759998 -0.012341
0.0051060999 0.038676001 0.045759998
0.017527999 0.034889001 -0.013514
0.018235 0.035512 -0.011675
0.054345001 0.056789 0.027478
0.043239001 0.075075999 0.027306
0.04318 0.073720001 0.027217001
0.059599999 0.056710999 0.010171
-0.029561 0.17123 -0.0077873999
0.033493999 0.061946001 0.039549999
0.033379 0.06058 0.03937
-0.051527999 0.14471 0.015388
-0.051865999 0.14469001 0.01637
0.031891 0.072713003 0.040831
0.031053999 0.072714001 0.041375998
0.026454 0.10607 0.038387001
0.02551 0.10607 0.038782001
-0.01399 0.16982 -0.016915999
-0.015507 0.17569999 -0.019087
0.027765 0.098182 0.042057998
0.028068 0.10085 0.040748999
0.027487 0.099498004 0.041652001
0.027203999 0.1008 0.041251998
0.026751 0.10212 0.040601999
0.027596001 0.10214 0.040068999
0.029030001 0.096873 0.042128999
0.028103 0.096868999 0.042541999
0.026250999 0.10339 0.039871
0.029314 0.095565997 0.042539001
0.02843 0.095555998 0.043017998
-0.024243001 0.17272 -0.012398
0.029541001 0.094253004 0.042863999
0.02871 0.094245002 0.043418001
-0.020176999 0.16108 -0.0047452999
-0.015714999 0.17719001 -0.019377001
-0.015926 0.17865001 -0.019655
-0.016693 0.17867 -0.019028001
-0.016117999 0.18014 -0.019939
-0.016844001 0.18014 -0.019206
0.026628001 0.090242997 0.045658
0.025901999 0.090248004 0.046372999
0.025232 0.088923998 0.047162
0.025993999 0.088918 0.046498001
0.025106 0.090255998 0.046982002
0.0096151 0.1225 0.034807
0.02366 0.084899999 0.048392002
0.015974 0.044813 0.043876
0.01516 0.050478 0.046301
0.040119 0.097955003 0.028275
0.040957 0.097172 0.027168
0.027105 0.083577998 0.046296
0.027053 0.082226001 0.046209
0.027031001 0.078185 0.046154
0.026875 0.076806001 0.045908999
0.026236 0.074074998 0.044984002
0.026575999 0.075444996 0.045481998
0.026076 0.072699003 0.044735
-0.054198001 0.15084 0.026389999
-0.054625999 0.15132 0.027198
-0.04944 0.11974 0.031936001
-0.049359001 0.12117 0.032055002
-0.049447998 0.12259 0.031936001
-0.049585 0.124 0.031732
-0.049531002 0.12548 0.031876002
-0.049577001 0.12688001 0.031787001
-0.049802002 0.12829 0.031461999
-0.050106 0.12969001 0.031029001
-0.050326001 0.13111 0.030706
-0.050721999 0.13249999 0.030153999
0.052903999 0.046269 0.014205
0.052700002 0.046211001 0.015209
-0.050861001 0.13359 0.029123999
0.049238998 0.043738998 0.016463
0.047618002 0.042668998 0.01716
-0.052829999 0.13808 0.027075
-0.067386001 0.14635 -0.024435
0.014337 0.050473999 0.046866
0.037131999 0.11104 0.0047982
0.037744001 0.11014 0.0050165001
0.037872002 0.10973 0.0041657998
-0.020728 0.1683 -0.012615
0.029005 0.069949999 0.041901998
0.029949 0.069977 0.041510001
0.035300002 0.072751999 0.038733002
0.035372 0.074101001 0.038842
-0.016907001 0.17422999 -0.017602
-0.021097001 0.16105001 -0.0043243999
0.030096 0.099528998 0.040173002
0.029736999 0.10082 0.039659999
0.026748 0.065936998 0.043883
-0.051713999 0.047497001 0.020656001
-0.090246998 0.13226999 0.0062330998
-0.032161001 0.15343 -0.0053596999
0.035144001 0.071382001 0.038488001
0.028843001 0.059172999 0.041586
0.017264999 0.071321003 0.051332999
0.018139999 0.071323998 0.050843
0.017313 0.072656997 0.051424999
-0.055824 0.052664999 0.0084694996
-0.055978 0.053445999 0.0076723001
-0.056267001 0.052108001 0.0077025001
0.033357002 0.1008 0.036107
0.033020001 0.10212 0.035620999
0.025722001 0.067252003 0.044163998
0.025838001 0.065918997 0.044314001
0.02406 0.082258001 0.048941001
0.040968999 0.092634998 0.029495999
0.043189 0.076410003 0.027210999
0.043203 0.077770002 0.027279001
-0.087044999 0.084671997 0.0044927001
-0.087095 0.084652998 0.0054799998
-0.087793 0.086048 0.0044817999
0.010996 0.069891997 0.054533999
0.019834001 0.040800001 0.042438999
0.033177 0.059220001 0.039062001
0.032148 0.074087001 0.041212
0.025746999 0.10474 0.039143
0.02891 0.092919998 0.043703001
0.028994 0.091587998 0.043818001
0.032848999 0.087638997 0.042341001
0.032791998 0.088973999 0.042270999
0.031957 0.088969 0.042819001
0.032770999 0.086278997 0.042222001
0.031916 0.087617002 0.042750001
0.031865999 0.086268999 0.042668998
0.032602999 0.083571002 0.041953001
0.032637998 0.084919997 0.042017002
0.03176 0.084909998 0.042507
0.031759001 0.083568998 0.042489
0.032675002 0.090295002 0.042105
0.032450002 0.091624998 0.041788999
0.032179002 0.092941999 0.041398998
0.031385999 0.092927001 0.042011
0.031955998 0.094256997 0.041083001
0.031168999 0.094245002 0.041703001
0.02895 0.086199 0.043713
0.029802 0.086203001 0.043196999
0.029007999 0.087549001 0.043809999
0.028971 0.084858 0.043728001
0.02895 0.088885002 0.043761
0.028996 0.083513997 0.043775
0.029199 0.082198001 0.044043001
-0.016228 0.18162 -0.020074001
0.026883001 0.087583996 0.046021
0.026735 0.088907003 0.045813002
0.024955001 0.091580003 0.046774998
0.021747001 0.1021 0.043908998
-0.031005999 0.15620001 -0.010005
0.016445 0.054885 0.048222002
0.014704 0.049006 0.045620002
0.017545 0.064533003 0.049902
0.025334001 0.04355 0.038111001
0.024759 0.043582 0.039016999
0.025551001 0.046337999 0.038433
0.025595 0.047724999 0.038509
0.02469 0.047708999 0.038959999
0.025502 0.044945002 0.038341999
