# .PCD v0.7 - Point Cloud Data file format
VERSION 0.7
FIELDS x y z
SIZE 4 4 4
TYPE F F F
COUNT 1 1 1
WIDTH 1439
HEIGHT 1
VIEWPOINT 0 0 0 1 0 0 0
POINTS 1439
DATA ascii
-0.00093476003 0.10014 -0.034761
0.00021067 0.10501 -0.034825001
-0.00076286 0.10471 -0.034841001
0.0010806 0.10466 -0.034469001
0.0023028001 0.10628 -0.034237999
0.0016292999 0.10789 -0.034773
0.0026054 0.10881 -0.034480002
0.0036065001 0.10949 -0.034143001
0.0037569001 0.11064 -0.034256
-9.5427e-05 0.11037 -0.034773
0.00021555999 0.1106 -0.033918001
0.0031675 0.11186 -0.034747001
-0.0077685001 0.11795 -0.034889001
-0.0079522999 0.11691 -0.034752999
-0.0089400001 0.11795 -0.034766998
-0.0063030999 0.11695 -0.034751002
-0.0093518002 0.11908 -0.034756001
-0.0098310001 0.11795 -0.034568999
0.0017298 0.11903 -0.034607001
0.0060147 0.11824 -0.034828998
-0.0053935 0.11781 -0.034782
0.0070552998 0.11891 -0.034561999
0.0065585002 0.11799 -0.034570999
-0.0041434998 0.11939 -0.034775
-0.010752 0.12076 -0.034235999
-0.011037 0.12197 -0.034100998
-0.0019008 0.12238 -0.034495998
-0.0021375001 0.1206 -0.034185
0.00069274998 0.12244 -0.034777001
0.00066630001 0.12364 -0.034844998
-0.0098935002 0.12282 -0.034688
-0.0094902003 0.12493 -0.034949001
-0.010143 0.12819999 -0.034727
-0.0099956002 0.12941 -0.034837
0.010356 0.12833001 -0.034710001
0.01036 0.12963 -0.034929
-0.010505 0.13057999 -0.034738999
0.011356 0.13183001 -0.034685001
-0.010719 0.13228001 -0.034754001
-0.010501 0.1339 -0.034832001
-0.011119 0.13347 -0.034476999
-0.010552 0.13519999 -0.034736998
0.012264 0.13353001 -0.034297001
0.011606 0.13397001 -0.034773
-0.010456 0.13602 -0.034708001
0.011865 0.13551 -0.034773
-0.010826 0.13652 -0.034023002
0.011857 0.13958 -0.034864001
0.01264 0.14120001 -0.034409001
0.011657 0.14278001 -0.034756999
0.0048870998 0.14501999 -0.034763999
-0.0084164003 0.14543 -0.034278002
0.011315 0.14544 -0.034572002
0.012333 0.14483 -0.034209002
0.0066897999 0.14490999 -0.034727
0.012255 0.14376999 -0.034368001
0.0053757001 0.14526001 -0.034566
-0.0081307003 0.14669 -0.034015
0.010581 0.14613999 -0.034773
0.0085806996 0.14771999 -0.034782
0.0093740001 0.14791 -0.034775998
0.0047424999 0.14920001 -0.034727
-0.0068051 0.14982 -0.034196001
-0.0052712001 0.15128 -0.034449998
-0.0047685001 0.15057001 -0.034758002
0.0034435999 0.15091 -0.034887001
-0.0028935 0.15180001 -0.034773
-0.0022406999 0.15215001 -0.034772001
0.0022231999 0.15238 -0.0348
-0.018268 0.051842 -0.034543
-0.018014999 0.052751999 -0.033881001
-0.021059999 0.052475002 -0.033891
-0.022599 0.053064 -0.033959001
-0.024062 0.053686 -0.033934001
-0.028287999 0.055091999 -0.033925001
-0.026768001 0.054660998 -0.033872001
-0.014143 0.054825 -0.034630999
-0.013984 0.055893999 -0.034570001
-0.029578 0.055776 -0.03393
0.0052226 0.055852 -0.034102
0.0038174 0.055768002 -0.034541
-0.015209 0.055865999 -0.034127999
0.0064264 0.055840001 -0.034051001
0.0078379 0.056035001 -0.033877
0.0037122001 0.057057999 -0.034526002
0.010991 0.056878 -0.033939999
0.0098147998 0.056511 -0.033835001
-0.01378 0.057085998 -0.034384001
-0.012525 0.058433998 -0.034481
-0.013712 0.058290999 -0.034145001
-0.028643999 0.057824999 -0.034522999
0.0035317999 0.058338001 -0.034281999
-0.012197 0.060192 -0.033939
-0.031055 0.058750998 -0.033877
0.0020638001 0.059831999 -0.034145001
0.019510999 0.058975998 -0.033752002
-0.010841 0.060387 -0.034185
-0.0096463999 0.060547002 -0.034324002
0.022390001 0.060112 -0.033872001
-0.00054514001 0.060568999 -0.033824001
0.00078167999 0.060327999 -0.034088999
-0.0080399998 0.060605001 -0.034446999
-0.0064559998 0.060621999 -0.034421001
-0.0051213 0.060603 -0.034410998
-0.0034957 0.060621001 -0.03418
-0.0020284001 0.060548 -0.034180999
-0.033144001 0.060857002 -0.034522001
0.022886001 0.06137 -0.034359001
0.023538999 0.061673999 -0.033858001
-0.033899002 0.061342001 -0.034147002
-0.035062 0.062809996 -0.033840999
0.023951 0.062740996 -0.033895999
0.023356 0.063575 -0.034752999
0.024197999 0.065991998 -0.034274001
0.024089999 0.067249 -0.034175999
-0.035289999 0.065747 -0.034363002
-0.034894001 0.066825002 -0.034740999
0.023745 0.068563998 -0.033845
0.022856001 0.069075003 -0.034395002
-0.034120001 0.069256 -0.034355
0.022566 0.069981001 -0.033856999
0.020965001 0.071057998 -0.033879999
-0.031172 0.07181 -0.034113999
-0.032570001 0.071189001 -0.033870999
0.018514 0.071993001 -0.034265999
0.019580999 0.071691997 -0.033914998
0.018029001 0.072779 -0.033801999
-0.028527999 0.073124997 -0.034279998
0.017069999 0.073073 -0.034480002
0.017074 0.074308001 -0.034396999
0.017766999 0.074410997 -0.033732001
0.018043 0.075926997 -0.033976
-0.029719001 0.075764 -0.034014001
-0.028609 0.075240999 -0.034324002
0.018069999 0.078601003 -0.033700999
-0.027019 0.079264 -0.034460001
-0.028351 0.079262003 -0.033863999
-0.022423999 0.079291999 -0.033911001
-0.018069001 0.079392001 -0.034262002
-0.016697001 0.079356998 -0.034090001
-0.0076565999 0.079200998 -0.034047998
-0.0037074999 0.079116002 -0.034139998
-0.0023302999 0.079131998 -0.034164999
0.0025217 0.079288997 -0.033948999
0.0079186996 0.079175003 -0.033898
0.015325 0.079149 -0.034012001
-0.016503001 0.085602 -0.033996001
-0.018015999 0.085652001 -0.034033999
-0.015037 0.085867003 -0.033872001
-0.019509999 0.085677996 -0.034012999
-0.020905999 0.085942 -0.033973001
-0.012211 0.086494997 -0.034072001
-0.013686 0.086107001 -0.033996999
-0.022407999 0.086406998 -0.033964001
-0.022086 0.087444998 -0.034823999
-0.0028393001 0.086571001 -0.034221001
-0.022724001 0.087461002 -0.034465
-0.0064741001 0.086923003 -0.034177002
-0.0079559004 0.087203003 -0.033994999
-0.0096274996 0.087583996 -0.034274001
-0.022422001 0.088880002 -0.033999
0.0092390999 0.088698 -0.034040999
0.0075850999 0.088785999 -0.033826001
-0.021152001 0.089203 -0.034136999
0.0064300001 0.088835001 -0.033789001
0.010899 0.088972002 -0.034065001
-0.012111 0.089193001 -0.034364
-0.013426 0.089468002 -0.034327
-0.018555 0.089585997 -0.034469999
-0.018018 0.090256996 -0.033736002
-0.014489 0.089587003 -0.034522001
-0.0079952003 0.090223998 -0.034008
0.012118 0.089097999 -0.033968002
0.012164 0.090249002 -0.034456
-0.0066593001 0.090635002 -0.034201
0.0094966004 0.090864003 -0.034297001
-0.0056435 0.090925001 -0.034522001
-0.0049521001 0.091936998 -0.034038
0.0065473001 0.091560997 -0.034472
0.0077184001 0.091888003 -0.033854
0.0054190001 0.091922998 -0.03461
0.0041665002 0.093432002 -0.034490999
-0.003148 0.094361998 -0.033950001
0.0036559999 0.094608001 -0.034377001
-0.0026753 0.095164999 -0.034159001
-0.0024371 0.096151002 -0.033991002
-0.0023680001 0.097488001 -0.034150999
0.0021969001 0.097365998 -0.034299001
0.0023564999 0.096450001 -0.034456
0.0013565 0.097575001 -0.034625001
-0.0020908001 0.098985001 -0.033861998
0.00072037999 0.099266 -0.034453999
-0.0020598001 0.10051 -0.033882
-0.0018935 0.10035 -0.034722999
-0.00068345002 0.10062 -0.034265
-0.0018727001 0.10197 -0.034069002
-0.00070136 0.10188 -0.034336001
-0.0016916 0.10306 -0.034107
-0.00061103998 0.10297 -0.034208
-0.0010115 0.10365 -0.034747001
-0.0015526999 0.10439 -0.033983
0.00053081999 0.10344 -0.03444
-0.0011551999 0.10497 -0.033876002
-0.00086083001 0.10616 -0.033916
0.0019590999 0.10486 -0.034168001
0.0013565 0.10633 -0.034644999
-0.00054461003 0.10764 -0.033968002
0.0023697999 0.10751 -0.034368999
-0.00025613999 0.10904 -0.034113999
-0.00034512 0.11071 -0.033482999
0.00052489003 0.11222 -0.033962
0.0038236 0.11209 -0.034488998
0.00066699 0.1135 -0.034038998
0.0040100999 0.11299 -0.034584999
0.00075301999 0.11483 -0.034067001
0.0052808002 0.11464 -0.034395002
0.0051537999 0.11342 -0.034215
-0.0076434999 0.11608 -0.034669001
-0.0079046004 0.1149 -0.034487002
-0.0095519004 0.11491 -0.034356002
0.00092801999 0.11639 -0.034267001
-0.0062684999 0.1162 -0.034643002
-0.0063724001 0.11497 -0.034453001
-0.0095223002 0.11607 -0.034483999
-0.0046772002 0.11526 -0.034272
-0.0048934999 0.11653 -0.034460999
0.0015269 0.1179 -0.034483999
-0.0046071 0.11796 -0.034614
-0.0035369 0.11784 -0.034154002
-0.0036398999 0.11928 -0.034503002
-0.010481 0.11925 -0.034370001
-0.0098310001 0.11964 -0.034646999
0.0081316996 0.12063 -0.034465998
-0.00062244001 0.11917 -0.034506001
-0.00052698998 0.12072 -0.034515001
0.0001065 0.1202 -0.034630001
0.00085219002 0.11935 -0.034533001
0.001619 0.12039 -0.034625001
0.0002315 0.12133 -0.034710001
0.0016065 0.12157 -0.034678001
-0.00055368 0.12239 -0.034472998
-0.00048366 0.12353 -0.034511998
0.0095851002 0.12214 -0.033976998
0.0096412003 0.12367 -0.034224
-0.0013935 0.12398 -0.034724001
-0.0003935 0.12471 -0.034582999
0.0093676001 0.12473 -0.034593999
0.0099398 0.12627999 -0.034573
-0.010934 0.12655 -0.034368999
0.010107 0.12732001 -0.034662999
0.010898 0.12815 -0.034341
-0.010769 0.12819999 -0.034495998
-0.010823 0.12938 -0.034548
-0.011133 0.13068999 -0.034534998
-0.01111 0.13191 -0.034577999
0.012206 0.13232 -0.034164
-0.011117 0.13519 -0.034139
0.012275 0.13486999 -0.034444001
-0.010385 0.1382 -0.033980001
0.012737 0.13748001 -0.034357999
-0.0099828001 0.13974001 -0.034063999
-0.0096837999 0.14105 -0.034045
-0.0094442004 0.14212 -0.033918001
0.012549 0.14263 -0.034357
-0.0089718997 0.14376999 -0.033985
0.0054398002 0.14441 -0.034607999
0.0062755998 0.14548001 -0.034548
0.011158 0.14659999 -0.034485001
0.0075528999 0.14672001 -0.034534
0.006395 0.14659999 -0.034345999
0.0053995 0.14666 -0.03441
0.0078389002 0.14808001 -0.034318
-0.0077485 0.14794999 -0.034007002
-0.0074247001 0.14914 -0.033838999
0.0079849996 0.14956 -0.033932999
0.0053387 0.14814 -0.034394
0.0052868002 0.14959 -0.034316
0.0064527001 0.14946 -0.033764001
0.0063727 0.14816 -0.034017
0.0092986999 0.14963 -0.034311999
0.010016 0.14867 -0.034524001
0.0052274 0.15121999 -0.034108002
0.0041065002 0.15144999 -0.034559
-0.0042685 0.15173 -0.034522001
-0.0037082001 0.15233999 -0.034444999
0.0041554999 0.15243 -0.034272
-0.0028484 0.15261 -0.034510002
-0.0022074 0.15389 -0.034088001
0.00067283999 0.1538 -0.034437999
-0.00050950999 0.15398 -0.034299001
-0.025557 0.054258 -0.033920001
0.0051548001 0.057032 -0.033957999
-0.031727001 0.059416998 -0.03427
-0.0031435001 0.060699999 -0.033023
0.024226001 0.064314999 -0.034024
0.021512 0.070462003 -0.034251999
-0.028456001 0.074375004 -0.03413
-0.023893001 0.079305001 -0.033829998
-0.015337 0.079340003 -0.034000002
-0.012337 0.079241998 -0.033884
-0.0064603998 0.079195999 -0.033976998
0.00055338 0.079302996 -0.034104999
0.0037916999 0.079186998 -0.034215
0.0064487001 0.079181999 -0.033682
0.0052788998 0.079184003 -0.033900999
0.013606 0.079178996 -0.033898
-0.0036535 0.086492002 -0.033806
-0.0049585002 0.086563997 -0.034226
-0.0016255 0.088652 -0.033876002
-0.015127 0.090264998 -0.033838
0.013726 0.090281002 -0.034155
-0.0063115 0.091568999 -0.033576999
0.0062362002 0.093078002 -0.033755999
0.0035613 0.096054003 -0.034031998
0.0022738001 0.099083997 -0.033941999
0.00092616002 0.10062 -0.034196001
0.00085891999 0.10189 -0.034198001
0.0023492 0.10336 -0.033817999
0.0051591001 0.11205 -0.033955
-0.0080185002 0.11316 -0.034237999
-0.0090688001 0.11345 -0.034242999
-0.0064842999 0.11201 -0.033939
-0.0066387998 0.11381 -0.034285001
-0.010699 0.11359 -0.034026001
-0.010982 0.11492 -0.034049999
-0.0049064001 0.11332 -0.034028001
-0.010674 0.11639 -0.034224
0.0063001001 0.11487 -0.034068
0.0061065 0.11608 -0.034370001
-0.010774 0.11783 -0.034231
-0.0036863 0.11641 -0.034139
-0.0020894001 0.11645 -0.034136001
-0.0022080999 0.11794 -0.034056
-0.00078082999 0.11769 -0.034336001
0.00073149998 0.11783 -0.034359999
0.0079985 0.1166 -0.033707999
-0.0022428001 0.11912 -0.034084
0.0079728998 0.1178 -0.033978
0.0081965001 0.11916 -0.034162998
0.0096001001 0.12062 -0.033684
-0.01099 0.12381 -0.034214001
-0.010637 0.12445 -0.034405001
0.010868 0.12511 -0.033753
0.010933 0.12661 -0.034015
-0.012371 0.12785999 -0.033794999
0.011363 0.1294 -0.034279998
-0.012102 0.13088 -0.033817001
-0.012247 0.12937 -0.033796001
0.011356 0.13074 -0.034522001
-0.011778 0.13229001 -0.034024999
0.012857 0.13907 -0.034322001
0.014051 0.1397 -0.033516999
0.013875 0.14103 -0.033652
0.013558 0.14651 -0.033408001
0.012288 0.14695001 -0.033941001
0.010994 0.14804 -0.034322999
0.010968 0.14926 -0.034088001
-0.0066215 0.15102001 -0.033831999
0.0052658999 0.15242 -0.033822998
0.0028565 0.15281001 -0.034538001
-0.0051002 0.15252 -0.034084
0.0022859001 0.15375 -0.034293
0.0035927 0.15399 -0.033929002
-0.023394 0.053397998 -0.034022
-0.01664 0.054189 -0.033815
-0.01521 0.057036001 -0.033854
-0.015203 0.058304001 -0.033585001
0.0049589002 0.058281001 -0.033797
-0.013734 0.059939001 -0.033759002
0.018169001 0.058699999 -0.033888001
0.0034968001 0.059859 -0.033837002
0.0036496001 0.060557 -0.032694001
-0.034825999 0.062013 -0.033668999
-0.030518999 0.072325997 -0.033452
-0.025394 0.079283997 -0.033771999
-0.01365 0.079341002 -0.033783
0.011857 0.079158001 -0.034272
-0.023465 0.088684998 -0.033636998
-0.012243 0.090319999 -0.033500999
-0.010631 0.090334997 -0.033574998
-0.0094045 0.090167999 -0.033794999
0.013534 0.089388996 -0.033771001
-0.016672 0.090654001 -0.033450998
-0.013678 0.090276003 -0.033599
0.01374 0.091283001 -0.033677001
0.015272 0.090208001 -0.033875
0.01532 0.091746002 -0.033748999
0.016453 0.090466 -0.033725999
0.016742 0.091658004 -0.033964999
0.0051883999 0.094844997 -0.033604
0.0034977 0.097594999 -0.033709999
0.0020252999 0.10047 -0.033856999
0.0021357001 0.10158 -0.033771999
0.0035291 0.1064 -0.033743002
0.00364 0.10797 -0.033893999
-0.0096434997 0.11208 -0.034000002
-0.0079591004 0.11199 -0.034040999
-0.0036434999 0.1132 -0.033865999
-0.0033028 0.11463 -0.034045
-0.00039304001 0.11463 -0.033813
-0.0025450001 0.11525 -0.034063
-0.00054778002 0.11614 -0.034065999
-0.012225 0.12478 -0.033842999
-0.012522 0.12627999 -0.033746
0.012148 0.12933999 -0.033700999
0.012338 0.13075 -0.033829
-0.011728 0.13354 -0.033778001
0.012609 0.13666999 -0.034391999
0.013656 0.1366 -0.033627
0.013393 0.13812999 -0.033945002
-0.0086971996 0.14515001 -0.033587001
0.012237 0.14792 -0.033806998
0.0095052002 0.15087 -0.033950999
-0.0061670002 0.15219 -0.033696
-0.0037607001 0.15381999 -0.033874001
-0.00092750002 0.15504999 -0.033673
0.00082871999 0.15523 -0.033712
-0.022325 0.053222001 -0.032641999
-0.016819 0.055608001 -0.033454999
0.0061149001 0.056976002 -0.033525001
0.014481 0.057750002 -0.033647001
0.0050283 0.059494998 -0.033541001
-0.031270001 0.058136001 -0.032627001
-0.032552 0.058812998 -0.032483
-0.0090185003 0.060709 -0.033771999
-0.0066435002 0.060741 -0.032772999
-0.0048934999 0.060768999 -0.032398
-0.0034578999 0.060844 -0.031305999
0.023217 0.060699999 -0.033583999
0.024859 0.065825 -0.033546999
-0.029231001 0.074281998 -0.033425
-0.017965 0.079851002 -0.033670001
-0.0053898999 0.079103 -0.033674002
-0.019205 0.079634003 -0.03365
-0.016758 0.079862997 -0.033521999
-0.021009 0.085950002 -0.032543
-0.023628 0.087536998 -0.033762001
0.0036501 0.088877998 -0.032428
-0.020877 0.089830004 -0.033459999
0.0078547997 0.090089001 -0.032575
0.0070580002 0.089764997 -0.033323999
0.0068613999 0.090171002 -0.032590002
-0.019591 0.090149999 -0.033459999
0.00030981001 0.089750998 -0.033521999
-0.00060194999 0.089740999 -0.033543002
0.010761 0.091329001 -0.033523001
0.017997 0.091770999 -0.033744998
0.018013 0.090861 -0.033376001
0.0093405005 0.091587998 -0.033601999
0.016641 0.092908002 -0.033491001
0.018002 0.093327001 -0.033542
-0.0046048001 0.092877001 -0.033481002
0.0050065001 0.10942 -0.033548001
0.00018577 0.10907 -0.033475999
0.0046898001 0.11064 -0.033872001
-0.0080185002 0.1107 -0.033803999
-0.0095098 0.11037 -0.033746999
-0.010855 0.11046 -0.033636998
-0.010956 0.11157 -0.033748999
-0.0066089001 0.11054 -0.033645999
-0.0049518002 0.11208 -0.033776999
-0.0038473001 0.11188 -0.033611
-0.0021607999 0.11367 -0.033776999
-0.0021490001 0.11226 -0.033505
-0.011873 0.11362 -0.033670001
0.0066897999 0.11349 -0.033643998
0.0076894001 0.11484 -0.033498
0.0090942997 0.11912 -0.033698998
0.0090798996 0.1179 -0.033454999
-0.012319 0.1192 -0.033493001
-0.012046 0.12069 -0.033633001
-0.012264 0.12247 -0.033624999
-0.012144 0.12316 -0.033723
0.012437 0.12653001 -0.032875001
0.011854 0.12681 -0.033395998
0.011869 0.12811001 -0.033661
0.013551 0.13519999 -0.033560999
-0.010145 0.13933 -0.033709999
0.013574 0.14541 -0.033527002
0.01078 0.15107 -0.033705998
0.011842 0.15067001 -0.033380002
0.012082 0.1496 -0.033535
-0.0050901002 0.15374 -0.033628002
0.0052477 0.15376 -0.033493001
-0.0016435001 0.15471999 -0.033762999
0.0022221 0.15504 -0.033712
-0.023945 0.053824 -0.032570999
-0.017428 0.054315001 -0.033385001
0.0094309999 0.056334998 -0.032701999
-0.016368 0.057009 -0.033388
0.015328 0.057629999 -0.032221001
0.015402 0.057822999 -0.032942999
-0.015113 0.059691999 -0.033383001
0.0019242 0.060628001 -0.032731
-0.012518 0.060761999 -0.032398
-0.010643 0.060734 -0.033023
-0.0088935001 0.060771 -0.032522
-0.0073934998 0.060772002 -0.032522
-0.0013935 0.06072 -0.032522
-0.0028935 0.060963999 -0.029273
-0.0023934999 0.060899001 -0.030273
-0.0010185 0.060938999 -0.029273
-0.035388 0.061558001 -0.03266
0.0243 0.061535001 -0.032961
0.024749 0.067295 -0.033448
0.025145 0.068448998 -0.032375999
0.023273 0.069573 -0.033564001
0.023808001 0.069977999 -0.032618001
-0.034093 0.070735 -0.033011001
-0.033966001 0.071238004 -0.032432999
-0.032749999 0.071769997 -0.032706998
0.019099999 0.072322004 -0.033268999
0.019637 0.072172999 -0.033116002
0.018453 0.074275002 -0.032972001
0.019593 0.076047003 -0.032552999
-0.015375 0.079700999 -0.033514
-0.014127 0.079567999 -0.033447001
-0.011946 0.079327002 -0.032637
0.0093564996 0.079144999 -0.033771999
0.0096688997 0.079149 -0.033085
0.010607 0.079161003 -0.033523001
-0.021235 0.079667002 -0.032506999
-0.021548999 0.079411998 -0.033222999
-0.00065662002 0.079131998 -0.032611001
-0.016495001 0.085620001 -0.032763999
-0.023985 0.089087002 -0.032873999
0.0094777998 0.088946998 -0.032554001
0.014874 0.089567997 -0.033549
-0.0094825998 0.091577999 -0.032947
-0.0076851998 0.091117002 -0.033450998
0.012169 0.091075003 -0.033698998
0.012058 0.092101999 -0.032476
0.019102 0.091894001 -0.033381
0.019105 0.093176 -0.033386
-0.0042026001 0.093891002 -0.033085
-0.0036857999 0.094866 -0.032896001
0.0047575999 0.096086003 -0.03351
0.0035959999 0.098975003 -0.033448
0.0032895999 0.10171 -0.033385001
0.0032724 0.10095 -0.033401001
0.0037614999 0.10349 -0.033316001
0.0037314999 0.10454 -0.03345
-0.014073 0.10536 -0.033578999
-0.015381 0.10643 -0.033434998
-0.013675 0.10627 -0.033673
-0.015181 0.10531 -0.033399999
8.5385e-05 0.10774 -0.033401001
0.0044792001 0.10818 -0.033578999
-0.0095690005 0.10888 -0.033530999
-0.010894 0.10908 -0.033477001
-0.0081435004 0.10799 -0.033286002
-0.0080538001 0.10936 -0.033537
-0.0066232001 0.10875 -0.033275001
-0.0052717999 0.10958 -0.033284999
-0.0047921999 0.11055 -0.033431999
-0.012231 0.11051 -0.033330999
-0.01233 0.11188 -0.033390999
-0.0033531999 0.11069 -0.033296999
-0.00068345002 0.11341 -0.033624001
-0.00059566001 0.11188 -0.033394001
0.0064397999 0.11216 -0.033481002
-0.01206 0.11524 -0.033640999
-0.012001 0.11807 -0.033643998
0.010607 0.12356 -0.033610001
-0.013241 0.12371 -0.033388
-0.013148 0.12478 -0.033426002
0.011356 0.12432 -0.033240002
-0.013428 0.12643 -0.032432999
0.012731 0.12881 -0.033133
0.013484 0.1338 -0.033411998
-0.011 0.1365 -0.032489002
-0.010784 0.13808 -0.032412
-0.0099841002 0.13962001 -0.032749999
0.014108 0.14229 -0.033472002
0.013685 0.14357001 -0.033647001
-0.017929999 0.14661001 -0.033670001
-0.019501001 0.14568 -0.033413
-0.019531 0.14668 -0.033606999
-0.017943 0.14575 -0.033484999
-0.019719001 0.1481 -0.033399001
-0.017887 0.1481 -0.033420999
-0.016888 0.14669999 -0.033404
0.0078426003 0.15117 -0.033376001
0.0064520999 0.15105 -0.033379
0.0059866998 0.15253 -0.033371001
0.0096233003 0.15243 -0.033418
0.010794 0.15192001 -0.033450998
-0.0031379 0.15492 -0.033452999
0.0047315001 0.15482999 -0.033351
0.0038207001 0.15502 -0.033466
-0.019703999 0.053024001 -0.032797001
-0.021012001 0.053022999 -0.032538
-0.018183 0.054226 -0.033016
-0.026765 0.054770999 -0.03272
-0.025405999 0.054361001 -0.032485001
-0.028086999 0.055165999 -0.032520998
-0.029576 0.055613 -0.032655001
-0.030712999 0.056169 -0.032469001
0.0079273004 0.056232002 -0.033004001
0.0066932002 0.056258999 -0.033227
-0.031016 0.057057999 -0.032558002
0.0093925996 0.056625001 -0.032359
0.0067230999 0.05703 -0.033209998
-0.016894 0.057138 -0.033115
0.0061389999 0.058223002 -0.033330001
0.0067989002 0.058538999 -0.032981001
0.016321 0.057916 -0.032439001
0.018113 0.058377001 -0.032644998
0.019399 0.058617 -0.032421
-0.015461 0.060254 -0.032871999
0.0064606001 0.059886999 -0.032701999
-0.032977 0.059413999 -0.033023
0.0052137999 0.060334999 -0.032674
0.023639999 0.060082 -0.032462999
0.022564 0.059455 -0.032591999
-0.033893 0.060575001 -0.033448
-0.034038 0.059811 -0.032388002
-0.013822 0.060628999 -0.033070002
-0.010789 0.060833 -0.031369001
-0.012117 0.060823001 -0.031127
-0.0023399 0.06081 -0.031459998
0.00035650001 0.060713001 -0.032021999
0.0008565 0.060674999 -0.032522
-0.035858002 0.062697999 -0.032875001
-0.036660001 0.064098999 -0.032496002
0.025257999 0.062857002 -0.032448001
0.024867 0.064048998 -0.033259001
-0.036144 0.064824998 -0.033319999
0.025648 0.064273998 -0.032391001
0.025177 0.065673001 -0.033202
0.025536999 0.067216001 -0.032573
-0.035158001 0.070146002 -0.032407999
-0.035797 0.069017999 -0.032674
0.021079 0.071787 -0.032736
-0.031481002 0.072185002 -0.032871
-0.030053999 0.073097996 -0.032984
0.019444 0.072834 -0.032628
0.018356999 0.073200002 -0.033217002
0.018546 0.075306997 -0.033043999
-0.030098001 0.075280003 -0.033016
-0.029935 0.074385002 -0.032765001
-0.031088 0.075557999 -0.032426
-0.030994 0.076076999 -0.033268999
-0.032051001 0.076316997 -0.032540001
-0.031893 0.077074997 -0.033271998
0.019339001 0.077418998 -0.032791
-0.032664999 0.077292003 -0.032494999
0.019407 0.078818001 -0.032551002
0.017845999 0.079208001 -0.032582998
-0.02981 0.079274997 -0.032742999
-0.025357001 0.079314001 -0.032761998
-0.023765 0.079374999 -0.032426
-0.013679 0.079944998 -0.032575998
-0.011173 0.079218999 -0.032627001
0.0036685001 0.079364002 -0.032983001
0.016781 0.0792 -0.032522
-0.019543 0.079848997 -0.032616001
-0.015147 0.080063999 -0.0328
-0.018091001 0.080169 -0.032602999
-0.016767999 0.080154002 -0.032844
-0.022629 0.086392 -0.032535002
-0.023553001 0.086609997 -0.032384001
-0.024236999 0.087164 -0.032970998
-0.0092759002 0.087459996 -0.032715
-0.011755 0.086795002 -0.032345999
-0.010508 0.087228 -0.032517001
-0.0010875 0.087811001 -0.032596
-0.0019586999 0.087242998 -0.032540999
-0.0064447001 0.088745996 -0.032598998
-0.006701 0.088669002 -0.033388
-0.0078426003 0.088831998 -0.032621998
-0.0014508 0.088665001 -0.033038002
-0.024801999 0.087738998 -0.032478001
0.0022036 0.089215003 -0.032528002
0.01082 0.089198999 -0.032559
0.012068 0.089469999 -0.032834999
-0.022531001 0.090315998 -0.032442
0.01375 0.089473002 -0.033181999
0.00081886002 0.090400003 -0.032566
0.0010463001 0.089465 -0.033036001
0.01543 0.090448 -0.032508999
0.014867 0.089570999 -0.033126
-0.019493001 0.090714 -0.032967001
-0.00031120001 0.090121999 -0.032466002
0.016646 0.090552002 -0.032609001
0.018028 0.090745002 -0.032657001
-0.018393001 0.090824999 -0.033078
-0.013652 0.091605 -0.032738999
0.019467 0.091558002 -0.032655999
-0.0079487003 0.091976002 -0.032944001
0.0094256001 0.092183001 -0.03303
0.013728 0.092129 -0.032577999
-0.0063379002 0.093217999 -0.032674
0.014981 0.092361003 -0.032912999
0.015597 0.092936002 -0.032574002
-0.0051658 0.093399003 -0.032885998
0.0079442002 0.093238004 -0.032919001
0.0075627002 0.092825003 -0.033273
0.019827999 0.093096003 -0.032963999
0.016473999 0.093612999 -0.032577001
0.017532 0.093982004 -0.033252001
0.0061236001 0.094324999 -0.033310998
0.0067134998 0.093869001 -0.033194002
0.017883999 0.094807997 -0.032830998
0.0064017 0.094676003 -0.033069
-0.0022064999 0.097704001 -0.032749001
0.0054099001 0.097659998 -0.032889999
0.0043565002 0.0977 -0.033349998
-0.0020747001 0.099252999 -0.032455999
-0.0012778 0.10044 -0.032986999
-0.0010514 0.1019 -0.032758001
-0.00086077 0.10334 -0.032857999
0.0042010001 0.10337 -0.033149
-0.00081068999 0.10479 -0.032829002
-0.013713 0.10469 -0.032731999
-0.015384 0.10466 -0.032657001
-0.012121 0.10616 -0.033419002
-0.012267 0.10486 -0.032825999
0.0043565002 0.10524 -0.033273
-0.00078141998 0.10635 -0.032866001
-0.015893999 0.10582 -0.033220001
-0.015226 0.10784 -0.032793999
-0.014831 0.10707 -0.033374
-0.013787 0.10768 -0.033034001
-0.013144 0.10707 -0.033390999
-0.012125 0.10758 -0.033309001
-0.010979 0.10649 -0.033287998
-0.010706 0.10767 -0.033372
-0.0095790997 0.10724 -0.033273999
-0.010018 0.10689 -0.033254001
-0.00078722998 0.10757 -0.032924999
-0.011874 0.10901 -0.033307999
-0.0073191002 0.10713 -0.033027001
-0.0080303997 0.10628 -0.032935999
-0.0048580999 0.10862 -0.033032
-0.0052314 0.1076 -0.032850001
-0.0065143998 0.10752 -0.033018
-0.0036018 0.10942 -0.033057
-0.00051272003 0.10907 -0.033109002
0.0065096002 0.1091 -0.032873001
0.0069816001 0.11071 -0.032960001
-0.0018458 0.11111 -0.033259999
0.0075943 0.11383 -0.033326
0.0079591004 0.11352 -0.033085
0.0086538997 0.11578 -0.033234999
0.0089103999 0.11655 -0.033266
-0.012893 0.11632 -0.033209
-0.013711 0.11784 -0.032915998
0.010607 0.1225 -0.03339
0.011017 0.12199 -0.032986
0.010909 0.1206 -0.032814
-0.013341 0.12245 -0.033325002
-0.014083 0.12246 -0.03286
-0.014107 0.12356 -0.032551002
0.011023 0.1232 -0.033238001
-0.013757 0.12499 -0.032552
-0.013107 0.12783 -0.032531999
-0.012919 0.12836 -0.033085
-0.012436 0.13074 -0.032388002
-0.012758 0.12937 -0.032444
-0.012108 0.13222 -0.03235
-0.011781 0.13377 -0.032487001
-0.0097995996 0.14095999 -0.032807
-0.0096546998 0.14212 -0.032722
-0.0093646003 0.14383 -0.032644
-0.0093400003 0.14534 -0.032318
0.014309 0.14451 -0.033158001
0.014184 0.14495 -0.033209998
-0.018005 0.1451 -0.032703999
-0.019564999 0.14498 -0.032446999
-0.020519 0.14659999 -0.033282001
-0.016646 0.14552 -0.032375
-0.0083785001 0.14678 -0.032839
-0.0086033 0.14573 -0.032908998
-0.021155 0.14672001 -0.032763999
0.013291 0.14799 -0.033310998
0.013944 0.147 -0.033133
-0.021026 0.14809 -0.032784
-0.016542999 0.14812 -0.033093002
-0.016344 0.14636999 -0.032938
-0.0080171004 0.1481 -0.032646
-0.016894 0.1477 -0.033379
-0.019644 0.14883 -0.033195999
-0.019626001 0.1497 -0.032650001
-0.0077487999 0.14936 -0.032381002
-0.0071997 0.15016 -0.032628
-0.0069793002 0.15096 -0.032563999
0.012458 0.15082 -0.033052001
-0.0064959 0.15255 -0.032504998
0.0065811002 0.15231 -0.033036999
0.01097 0.15283 -0.033091001
-0.0058935001 0.15333 -0.033378001
-0.006058 0.15391999 -0.032590002
-0.0046930001 0.15479 -0.033270001
0.0053062998 0.15545 -0.032924
0.0039565 0.15572 -0.03311
-0.00076849997 0.15579 -0.033232
-0.019375 0.054157 -0.032348
-0.018031999 0.055757999 -0.032809
-0.018061999 0.056995999 -0.032547001
-0.016829001 0.058520999 -0.032825999
-0.016654 0.060134001 -0.032453001
0.021606 0.059324998 -0.033199001
-0.034644 0.060825001 -0.032878999
-0.00037431001 0.060821 -0.030838
0.00083421997 0.060814001 -0.030647
-0.036144 0.066074997 -0.033452
-0.03669 0.067281999 -0.032605
-0.036742002 0.065858997 -0.032701001
-0.036564 0.068161003 -0.032400999
0.024490001 0.068814002 -0.03286
0.022185 0.071419999 -0.032361001
0.022675 0.070665002 -0.032956
-0.031186 0.079184003 -0.032483
-0.032621 0.078541003 -0.032427002
-0.0053165001 0.079039998 -0.032512002
-0.0020395999 0.078989998 -0.032747999
-0.026351999 0.079322003 -0.032481
-0.022531999 0.079423003 -0.032761
0.010687 0.079180002 -0.032442
-0.019556999 0.085809998 -0.032958001
-0.013747 0.086254999 -0.032790001
-0.0047991001 0.086616002 -0.032572001
-0.0080097001 0.087375 -0.032731
0.0081761004 0.088866003 -0.032804001
-0.022786999 0.089547001 -0.033089001
-0.00096242002 0.089097001 -0.032563001
0.013735 0.090328 -0.032444
-0.021087 0.090594999 -0.032692
-0.017937999 0.09161 -0.032646
-0.019423001 0.091536 -0.032458
-0.015161 0.091738001 -0.032692999
-0.016689001 0.091877997 -0.032593999
-0.012192 0.091144003 -0.032974999
-0.010785 0.091715001 -0.032754999
-0.011018 0.090792 -0.033239
-0.0067186998 0.091949999 -0.033195
0.010867 0.092210002 -0.032561
0.019506 0.094795004 -0.032529
-0.0026553001 0.096266001 -0.032940999
0.0053564999 0.096574999 -0.033133999
0.0063788001 0.096362002 -0.032675002
0.0050965999 0.098975003 -0.032837
0.0047117001 0.10033 -0.032898001
-0.016638 0.10476 -0.032430999
-0.016661 0.10616 -0.032795001
-0.010912 0.10513 -0.032912001
0.0046196999 0.10608 -0.033266
0.0051728999 0.10611 -0.033052001
-0.010518 0.10595 -0.033133
-0.0094999997 0.10601 -0.033057999
-0.016686 0.10762 -0.032662001
0.0054815002 0.10795 -0.033149999
-0.012393 0.10874 -0.033190001
-0.012518 0.10795 -0.033195
-0.0064290999 0.10629 -0.032731
-0.013658 0.11061 -0.032768998
-0.0035240001 0.10768 -0.032683
-0.0017214 0.10931 -0.032945
-0.0020139001 0.10771 -0.032660998
-0.00088635 0.11014 -0.033131
-0.013735 0.11164 -0.032745
0.0080212001 0.11208 -0.032756001
-0.013477 0.11308 -0.032914001
0.0086137997 0.11454 -0.032997001
-0.013951 0.11504 -0.032722
0.0096560996 0.11595 -0.032731999
0.0095860995 0.11489 -0.032545
0.010044 0.11919 -0.033149
-0.013921 0.11908 -0.032924999
-0.014008 0.12071 -0.032977
0.010891 0.1191 -0.032561
-0.013126 0.12089 -0.033259999
0.01215 0.12364 -0.032432001
0.013774 0.12927 -0.032306001
0.013657 0.13057999 -0.032701999
0.013357 0.13225999 -0.033273
0.013948 0.13180999 -0.032682002
0.014065 0.13384999 -0.032929
0.014115 0.13463999 -0.033022001
-0.011269 0.13514 -0.032680001
0.014705 0.13604 -0.032671999
0.015112 0.13789999 -0.032512002
0.014714 0.14354999 -0.032949999
-0.015321 0.148 -0.032375
-0.015603 0.14686 -0.032533001
-0.018007001 0.14951999 -0.032731999
-0.016611001 0.14941999 -0.032462001
0.013738 0.14964999 -0.032756999
0.012972 0.15008 -0.033023
0.0067731999 0.15141 -0.033165
0.0075014001 0.15138 -0.033236001
0.0079322001 0.15252 -0.032937001
0.012383 0.15242 -0.032623999
0.0091792 0.153 -0.033070002
0.0093491999 0.15403999 -0.032694999
0.0065744999 0.15394001 -0.032767002
-0.0056636999 0.15414999 -0.033126999
-0.0052466001 0.15538999 -0.032515001
-0.0036969001 0.15575001 -0.032922
-0.0015185 0.15604 -0.032983001
0.0021065001 0.15607999 -0.033151001
0.0015673999 0.15694 -0.032678999
0.00047833001 0.15652999 -0.032885
0.0079102004 0.056936 -0.032554999
0.010948 0.056519002 -0.032396
0.0079643996 0.058384001 -0.032430001
0.021148 0.058991998 -0.032311
0.024953 0.061547 -0.032171
0.023564 0.071359999 -0.031098001
0.022644 0.071882002 -0.031153999
0.019472999 0.074496999 -0.032232001
-0.0059847999 0.079020001 -0.032738999
-0.0041188998 0.079071999 -0.032515999
-0.0076346002 0.079117998 -0.032597002
0.011979 0.079186 -0.032462001
0.013357 0.079190001 -0.033023
0.00064128998 0.079379998 -0.032464001
-0.022314001 0.079632998 -0.032055002
-0.019370999 0.085731998 -0.031243
-0.018319 0.085740998 -0.032954998
-0.019593 0.085767999 -0.029847
-0.01801 0.08563 -0.030884
-0.012431 0.086577997 -0.032472
-0.0038826 0.086589999 -0.032685999
-0.0030149999 0.086866997 -0.032435998
-0.023641 0.089994997 -0.032159001
-0.0079321004 0.089915 -0.032286
-0.0065850001 0.089699 -0.032342002
0.012274 0.089988001 -0.032449
-0.0078849001 0.093254 -0.032402001
0.017047999 0.094374001 -0.032458
-0.0035540001 0.096162997 -0.032366998
0.0050547002 0.10208 -0.032729998
0.0051091998 0.10338 -0.032784
0.0053564999 0.1048 -0.032832999
0.0062314998 0.10358 -0.032310002
-0.0097209997 0.10342 -0.032365002
-0.010792 0.10339 -0.032365002
-0.0094087003 0.10463 -0.032685
-0.0083684996 0.10476 -0.03263
-0.0065346002 0.10466 -0.032370999
0.0064397999 0.10602 -0.03249
0.0064397999 0.10733 -0.032650001
-0.0049592 0.10611 -0.032483
-0.013774 0.10898 -0.032726999
0.0078963004 0.11054 -0.032489002
-0.01365 0.11664 -0.032889999
0.0098564997 0.11757 -0.032953002
-0.015235 0.11916 -0.032244999
0.012342 0.12514 -0.032621
0.012756 0.12761 -0.032855
0.013455 0.12819 -0.032365002
-0.011463 0.13411 -0.032573
-0.020946 0.14548001 -0.032267001
0.015338 0.14661001 -0.032251
0.014116 0.14813 -0.032864999
0.01353 0.15110999 -0.032506999
0.010922 0.15399 -0.032687001
0.012148 0.15374 -0.032257002
0.0064773001 0.15538 -0.032421
0.0050757001 0.15677001 -0.032428999
-0.0021476001 0.15668 -0.032506999
-0.00040056001 0.15674999 -0.032655999
0.0035504999 0.15673999 -0.032653
0.0064454 0.19583 -0.032513998
0.0065465998 0.19438 -0.032782
0.0052307001 0.19441 -0.032790001
0.0097062001 0.19581001 -0.032763001
0.0093815001 0.19418 -0.032683
0.0077991998 0.19448 -0.032729998
0.0078777997 0.19591001 -0.032859001
0.0079677999 0.19722 -0.032476
0.0094862003 0.19731 -0.032782
-0.023622001 0.053955998 -0.031151
-0.022813 0.053574 -0.031817
-0.019299001 0.055711001 -0.032131001
0.01239 0.056658 -0.031161999
-0.018134 0.058258999 -0.032212
0.0076858001 0.059780002 -0.032200001
-0.014394 0.060733002 -0.032522
-0.0077995998 0.060849998 -0.031427
-0.036614999 0.063170999 -0.032184999
-0.030824 0.073080003 -0.032244999
0.021066001 0.076072998 -0.032116
0.020855 0.077559002 -0.032563001
0.020977 0.078543 -0.03232
-0.012298 0.079591997 -0.032311998
-0.0037044 0.079046004 -0.031018
-0.01539 0.085827 -0.032286
-0.014288 0.086149998 -0.031114001
-0.015305 0.085862003 -0.031265002
-0.0064806999 0.087033004 -0.032256
0.0051615001 0.088790998 -0.032218002
-0.02093 0.091608003 -0.032081001
-0.0094200997 0.093157001 -0.032272998
0.0093978997 0.093226999 -0.032343
0.020559 0.093122996 -0.032244001
0.020312 0.094228998 -0.032221999
-0.0050416002 0.094632 -0.032403
0.0079972995 0.094795004 -0.032286
0.0065119001 0.097663999 -0.032352
0.0065188999 0.098586001 -0.032201
-0.0021989001 0.10047 -0.032148998
-0.011966 0.10332 -0.032365002
-0.0079245996 0.1034 -0.032248002
-0.0020590001 0.10648 -0.032497
-0.0021079001 0.10496 -0.032331001
0.0062314998 0.10491 -0.032462001
-0.0051540001 0.1047 -0.032207999
-0.0039217002 0.1067 -0.032494999
0.0079392996 0.1093 -0.032228999
-0.015298 0.10919 -0.032118998
0.0095239999 0.11338 -0.032244999
-0.015419 0.11652 -0.03224
0.010815 0.11641 -0.032088
-0.015339 0.11797 -0.032265998
-0.014968 0.1208 -0.032233
-0.014643 0.12231 -0.032074999
0.011963 0.12197 -0.032226998
-0.010773 0.13952 -0.032164
0.015141 0.14555 -0.032481998
-0.0091543999 0.14657 -0.032148
-0.015549 0.14904 -0.032143001
0.015232 0.14806999 -0.032170001
0.014854 0.14956 -0.032164998
-0.020958001 0.14932001 -0.032224
0.0079814997 0.15353 -0.032618999
0.0096169002 0.15543 -0.032152999
-0.0035894001 0.15676001 -0.032276001
0.010874 0.19166 -0.032396998
0.0095688999 0.19152001 -0.032412
0.010982 0.19292 -0.032627001
0.012378 0.19283 -0.032338001
0.011973 0.19146 -0.032164998
0.0096690003 0.19283 -0.032630999
0.0081452001 0.19284 -0.032506
0.0037779999 0.1927 -0.032416999
0.0021895 0.19289 -0.032416001
0.0038999999 0.19441999 -0.032706998
0.0052049002 0.19272999 -0.032421
0.010829 0.19433001 -0.032751001
0.0021790001 0.19453 -0.032559
0.0065986002 0.19284999 -0.032426
0.012086 0.19446 -0.03263
0.00065629999 0.19292 -0.032272
0.00055171002 0.19458 -0.032496002
0.0035174999 0.19584 -0.032212
0.0051529999 0.19575 -0.032297
0.010856 0.19564 -0.032751001
0.012373 0.19599 -0.032632001
0.010773 0.19674 -0.032706
0.013699 0.19588999 -0.032154001
0.012502 0.19718 -0.032607999
0.0020483001 0.19724 -0.032354999
0.0038982001 0.19724 -0.032458
0.010844 0.19864 -0.032669999
0.0036273 0.19866 -0.032644
0.0021021999 0.1987 -0.032556999
0.0048544002 0.19716001 -0.032361999
0.0051023001 0.19852 -0.032632001
0.0064285998 0.19724999 -0.032152001
0.0064377999 0.19866 -0.032439001
0.0094959997 0.19854 -0.032446001
0.013701 0.19869 -0.032306999
0.013862 0.19717 -0.032143001
0.012348 0.1992 -0.032559
0.0038971 0.20027 -0.032168999
0.005136 0.20018999 -0.032302
0.010803 0.20029999 -0.032276001
0.011809 0.20024 -0.032455001
0.0064317998 0.20014 -0.032359999
0.0094279004 0.19976 -0.031927001
-0.017987 0.20598 -0.032462999
-0.017894 0.2076 -0.032664001
-0.016559999 0.20747 -0.032697
0.023805 0.20609 -0.032481998
0.02235 0.20587 -0.032480001
0.022461999 0.20744 -0.032395002
-0.01663 0.20611 -0.032366998
-0.01932 0.20740999 -0.032157999
-0.019580999 0.20598 -0.032203
-0.01377 0.20897 -0.032173
-0.013882 0.20728 -0.032336
-0.015388 0.20725 -0.032524001
-0.018138001 0.20886999 -0.032331001
-0.016744001 0.2088 -0.032628998
-0.015259 0.20895 -0.032299999
-0.022283999 0.21734001 -0.032152001
-0.020932 0.21603 -0.032506
-0.022570999 0.21604 -0.032187998
-0.021033 0.21773 -0.032472
-0.019412 0.21754999 -0.032462001
-0.019439001 0.21608999 -0.032512002
-0.019160001 0.056929 -0.031978
0.0097001996 0.056972999 -0.031479001
0.010805 0.056903999 -0.030901
0.016380001 0.057537999 -0.030908
0.015372 0.057289001 -0.030854
-0.017856 0.059836999 -0.032078002
-0.035135001 0.060582001 -0.032033999
-0.013563 0.060826 -0.030748
0.0022315001 0.060771 -0.030772001
-0.037223998 0.068525001 -0.031305
-0.032783002 0.072146997 -0.031505
-0.031932 0.072324999 -0.032021999
-0.030587001 0.074179001 -0.032141
0.021856001 0.077283002 -0.032102
-0.032699 0.079195999 -0.031041
-0.0098975999 0.079201996 -0.032395002
0.0080570998 0.079265997 -0.032348
0.014856 0.079178996 -0.032272
0.0049573001 0.079405002 -0.032129001
-0.0019558 0.087355003 -0.030915
-0.0096329004 0.088776 -0.031141
-0.0092930002 0.088845998 -0.032455001
-0.010297 0.088972002 -0.032246999
-0.024819 0.089002997 -0.032155
-0.010303 0.089139998 -0.030986
0.0028875 0.089266002 -0.031665001
0.0037274 0.089252003 -0.031067999
0.0071621002 0.088775001 -0.031962
-0.0093168002 0.089941002 -0.031280998
0.0020069999 0.090452 -0.032093
0.0093949996 0.090245999 -0.032388002
0.0078771999 0.089884996 -0.030986
-0.0092094997 0.089782998 -0.032074001
-0.015268 0.093217 -0.032141
-0.013727 0.093470998 -0.032069001
-0.010841 0.093308002 -0.032136999
-0.012139 0.093304999 -0.032113999
-0.0065100999 0.094756 -0.032074999
-0.0047999001 0.095991001 -0.032060999
0.018952999 0.095761999 -0.032150999
0.017928001 0.095903002 -0.032083001
-0.0035067999 0.097329997 -0.032060999
-0.0031236999 0.098738 -0.031992
-0.028019 0.10034 -0.032102998
-0.026977001 0.10051 -0.032343
-0.026991 0.099411003 -0.032083999
0.0063868999 0.099950001 -0.032155
-0.026869001 0.102 -0.032212999
-0.002289 0.10189 -0.032058001
0.0064844 0.10226 -0.032085001
-0.013722 0.10334 -0.032242
-0.0022772001 0.10337 -0.032125998
-0.0036182001 0.10488 -0.032140002
-0.016704001 0.10862 -0.032141
-0.0178 0.10765 -0.032111
-0.017831 0.10859 -0.031964
0.0092914002 0.11213 -0.032097999
0.0089817997 0.11075 -0.031975001
-0.015195 0.11219 -0.032076001
-0.015197 0.11336 -0.032129999
-0.015491 0.11473 -0.032102
0.011064 0.11789 -0.032207999
-0.014286 0.12379 -0.031199999
0.014825 0.13395999 -0.032230999
0.015218 0.13517 -0.032055002
-0.010775 0.14084999 -0.032081999
0.015683999 0.14083999 -0.032182999
-0.010552 0.14229 -0.032031
0.015779 0.14232001 -0.032102998
-0.018355001 0.14436001 -0.030722
-0.017925 0.14462 -0.031422999
-0.02251 0.14691 -0.031215999
-0.021182001 0.14971 -0.031036999
-0.020264 0.15037 -0.031923
0.013617 0.15254 -0.032026999
0.0076505002 0.15531 -0.032026999
-0.0056269001 0.15565 -0.031440001
-0.0046373 0.15661 -0.032053001
0.0062485002 0.15686999 -0.032028999
0.0041065002 0.15808 -0.031877
0.0047621001 0.15771 -0.031989999
0.00084230001 0.15786999 -0.032067999
0.0021372 0.1576 -0.032272
0.0063751 0.16113 -0.032118998
0.0080334004 0.16267 -0.032141998
0.0080337003 0.16123 -0.032111999
0.0050392002 0.16122 -0.032099001
0.0050773998 0.16253 -0.032295998
0.0066220998 0.16272999 -0.032244999
0.0037440001 0.16136 -0.032051001
0.011097 0.19025999 -0.03204
0.0098540997 0.18961 -0.032028001
0.0064190002 0.19007 -0.032189999
0.0064277998 0.19148 -0.032265998
0.0079921 0.19033 -0.032224
0.007669 0.19126 -0.032327
0.0093262 0.18888 -0.031913001
0.0050440002 0.19186001 -0.032212999
-0.00087712001 0.19284999 -0.032051999
-0.00051730999 0.19457 -0.032453999
0.013476 0.19433001 -0.032122001
-0.00073184998 0.19608 -0.032071002
0.00067744002 0.19588999 -0.032007001
-0.0021029001 0.19424 -0.032152999
-0.0020576001 0.19588 -0.032325
-0.0036028 0.19581001 -0.032196999
-0.0034394001 0.19724999 -0.032226998
-0.0022372999 0.19696 -0.032085001
-0.0052004 0.19583 -0.032001998
-0.0053935 0.19682001 -0.032072999
-0.0049136002 0.19879 -0.03224
-0.0039495002 0.19855 -0.032081999
0.00064197002 0.19717 -0.032086
0.00067421002 0.19864 -0.032391001
0.0023171999 0.20004 -0.032173
0.00074952003 0.20009001 -0.032097999
-0.00056058 0.19877 -0.032141
0.0079915002 0.19871999 -0.032039002
0.0078256996 0.20028999 -0.032134
0.013893 0.20011 -0.032228
-0.0060072001 0.1989 -0.032263
-0.0063525001 0.20028 -0.032308999
-0.0050392002 0.20004 -0.032147001
0.012248 0.20159 -0.032180998
0.013645 0.20176999 -0.032071002
0.023561001 0.20455 -0.032349002
0.025350999 0.20444 -0.032173
0.023819 0.20302001 -0.032051999
0.025208 0.20588 -0.032104
0.02244 0.20432 -0.032133002
-0.019452 0.20446999 -0.032072
0.021127 0.20467 -0.032065
0.019491 0.20598 -0.032257002
0.021074999 0.20601 -0.032412998
-0.015373 0.20599 -0.032053001
0.020984 0.20755 -0.032173
0.019549999 0.20725 -0.032145001
0.023903999 0.20745 -0.032248002
-0.012456 0.20761999 -0.032127
-0.017650001 0.20976999 -0.032033
-0.016767001 0.21022999 -0.032081001
-0.019513 0.21501 -0.031996001
-0.01785 0.21468 -0.03142
-0.018046999 0.21601 -0.032412
-0.016690999 0.21599001 -0.032161001
-0.016824 0.21764 -0.032037999
-0.017921001 0.21765 -0.032271001
-0.02098 0.21884 -0.032024998
-0.019521 0.21911 -0.032303002
-0.021381 0.053458001 -0.031729002
-0.022407999 0.053865001 -0.030997001
-0.025357001 0.054467998 -0.030936001
-0.031668 0.057020999 -0.031762999
0.013823 0.056953002 -0.031041
0.0097056003 0.058178 -0.031479999
0.0086933998 0.058738001 -0.031957
-0.033902001 0.058832001 -0.031027
0.0086812004 0.059376001 -0.031863999
0.022043999 0.059076998 -0.031822
0.0079813004 0.060422 -0.031063
-0.035480998 0.059965 -0.030864
-0.018203 0.060481999 -0.031493999
0.0063982001 0.060578 -0.031484999
-0.015206 0.060779002 -0.031273
-0.0095185004 0.060865 -0.031130999
0.0041065002 0.060722001 -0.030772001
0.024974 0.060134001 -0.030867999
-0.036212001 0.061756998 -0.031853002
-0.037236001 0.062831998 -0.031225
0.026701 0.064441003 -0.031105001
0.026106 0.065039001 -0.032021999
-0.037411001 0.064653002 -0.031713001
0.026174 0.066074997 -0.032021999
0.026085 0.067024 -0.031973999
0.026821001 0.067221001 -0.030996
0.026797 0.065953001 -0.031208999
0.025083 0.070012003 -0.031134
0.024241 0.070715003 -0.031326
-0.034070998 0.071736 -0.031222999
0.020626999 0.072520003 -0.031920001
0.021481 0.072228 -0.031628001
-0.031606 0.073091999 -0.031459998
0.021201 0.072898999 -0.030919001
0.020176999 0.073275998 -0.031732999
0.020176001 0.074286997 -0.031640001
-0.031369001 0.074267998 -0.031334002
0.021235 0.075421996 -0.031426001
-0.031608 0.075475998 -0.031716
-0.032621 0.075824998 -0.031184001
0.022322999 0.076057002 -0.031037999
0.022626 0.077533998 -0.03131
-0.033944 0.077313997 -0.031034
-0.033824001 0.078630999 -0.030915
-0.031114999 0.079338998 -0.031059001
-0.029571 0.079379 -0.031158
-0.010723 0.079193003 -0.031238999
0.01812 0.079172999 -0.031578001
0.021074001 0.079135001 -0.030997001
-0.027643001 0.079325996 -0.032272
0.0064336001 0.079369999 -0.031966999
-0.012383 0.079792 -0.031091999
-0.0051791002 0.086814001 -0.030925
-0.02527 0.087323003 -0.031118
-0.023719 0.086691 -0.031482
-0.010938 0.087139003 -0.031024
-0.0095255002 0.087535001 -0.031300001
-0.0082293004 0.087572999 -0.031029001
-0.02557 0.088895999 -0.031346999
0.0064319 0.088716 -0.030882001
0.0077490001 0.088703997 -0.030919001
0.012199 0.0902 -0.031364001
0.0067232 0.090597004 -0.030957
0.0095536001 0.089809 -0.031188
0.01061 0.090467997 -0.031987
-0.0078291995 0.090290003 -0.030884
-0.023961 0.090324998 -0.031652998
0.013232 0.090902001 -0.031624999
0.00061550998 0.090370998 -0.031176999
0.0084154001 0.091352001 -0.031854998
0.0065820999 0.091545999 -0.030928001
0.016607 0.091075003 -0.032078002
0.016604999 0.09189 -0.03108
0.0010355 0.091219999 -0.031429
0.0078764996 0.091885 -0.031231999
0.018124999 0.091739997 -0.031082001
0.017727001 0.091334 -0.031884
0.019516001 0.091564 -0.031081
0.020297 0.091757998 -0.031826001
0.020988001 0.092044003 -0.030913999
-0.018956 0.092683002 -0.032042999
-0.017862 0.093006998 -0.032060999
0.012136 0.092782997 -0.031833
0.011065 0.092834003 -0.032001998
0.013778 0.092735998 -0.031890001
-0.016518001 0.093372002 -0.032044001
0.0109 0.093189999 -0.031268001
0.0097492998 0.093096003 -0.030874001
0.015281 0.093566999 -0.031468
-0.0093935002 0.094075002 -0.031969
-0.0079076998 0.094497003 -0.031971999
0.016620999 0.094824001 -0.031268999
0.020850999 0.094787002 -0.031176001
0.019626999 0.096251003 -0.031199999
0.0076898001 0.096283004 -0.032033
0.0073874998 0.097075 -0.032007001
-0.027742 0.099495001 -0.031498
-0.0029185 0.10051 -0.031865999
-0.027965 0.10193 -0.032054
-0.028506 0.10189 -0.031433001
-0.012144 0.10095 -0.031966999
-0.013393 0.10108 -0.031964
-0.012266 0.10151 -0.032051001
-0.013972 0.10188 -0.032015
-0.0096434997 0.10108 -0.031865001
-0.0092102 0.10208 -0.032030001
-0.0081622005 0.10214 -0.031993002
-0.010746 0.10186 -0.032047
-0.026937 0.10341 -0.032072
-0.028229 0.10309 -0.031163
-0.028153 0.10476 -0.031177999
-0.0067074001 0.1015 -0.031778
-0.015063 0.10325 -0.031998999
-0.0049242 0.10361 -0.031950999
-0.01646 0.10404 -0.031911999
-0.0063340999 0.10307 -0.032008
-0.0036183 0.10364 -0.031950001
0.007739 0.10332 -0.031514999
-0.017774999 0.10499 -0.032076001
-0.017909 0.10626 -0.03201
0.0073564998 0.10482 -0.031923998
0.0076064998 0.10582 -0.031909999
0.0079814997 0.10745 -0.031927999
-0.01528 0.1104 -0.031973001
-0.016825 0.11227 -0.031451002
0.010506 0.11499 -0.032015
-0.015902 0.11557 -0.032019999
-0.015942 0.1162 -0.032021999
-0.016581999 0.1166 -0.031075999
-0.015343 0.12053 -0.030931
0.011867 0.12069 -0.032079998
0.012281 0.11906 -0.03111
0.011606 0.11995 -0.032171998
0.012662 0.1221 -0.031553
-0.013768 0.12642001 -0.031088
0.014038 0.12635 -0.031175001
0.013365 0.12608001 -0.031941999
-0.012915 0.12942 -0.031638999
0.014891 0.12944999 -0.03098
0.014478 0.13033 -0.031895999
-0.011854 0.13500001 -0.031948999
-0.011124 0.14237 -0.031451002
0.016202999 0.14385 -0.031713001
0.016487001 0.14207999 -0.031459998
-0.010348 0.14352 -0.031915002
-0.014919 0.14659999 -0.031204
-0.0094852997 0.14827 -0.031307999
-0.02235 0.14797001 -0.030919001
-0.0088312998 0.14809 -0.031941
-0.021600001 0.14857 -0.031748999
-0.0083815996 0.14967 -0.031548999
-0.017976999 0.15044001 -0.032088999
-0.019578001 0.15109999 -0.031013001
-0.019143 0.15057001 -0.032090001
-0.017852001 0.15124001 -0.031114999
-0.016620999 0.15102001 -0.031021001
-0.017100001 0.15033001 -0.032021999
-0.0073533999 0.15097 -0.031897999
-0.0065883999 0.15395001 -0.031112
0.010984 0.15527 -0.032140002
-0.0061960001 0.15521 -0.030875999
0.011775 0.15482999 -0.032021999
-0.0052097999 0.15701 -0.031051001
-0.0038167001 0.15738 -0.031789999
-0.00087555998 0.15772 -0.031969
-0.0015185 0.15755001 -0.031989001
0.0036057001 0.15868001 -0.031599998
0.0080655999 0.15956999 -0.031026
0.00082123 0.16166 -0.031957999
0.0022557999 0.16267 -0.032193001
0.0025738999 0.16159 -0.032044001
0.003856 0.16267 -0.032258
0.00056761998 0.16261999 -0.032055002
0.0092959004 0.16259 -0.031978998
0.0094327005 0.16125999 -0.031978
0.0052939998 0.16389 -0.032132
0.0091933999 0.16417 -0.031647999
0.00098145998 0.16368 -0.032019001
0.0035647999 0.16430999 -0.03207
0.0022437 0.16410001 -0.032058001
0.0075971 0.16393 -0.031941999
0.0071065002 0.16357 -0.032074001
0.0080118002 0.18708 -0.031626999
0.0063565001 0.18882 -0.032001998
0.0077073998 0.18899 -0.032008
0.0050436999 0.18895 -0.032008
0.0037264 0.18903001 -0.031989001
0.0036897999 0.18974 -0.032065999
0.005169 0.1902 -0.03215
0.0066065001 0.18708 -0.031663001
0.0035564001 0.19137999 -0.032083999
0.0023455999 0.18985 -0.032012001
0.013796 0.19146 -0.031321999
0.013169 0.19188 -0.031830002
0.0020161001 0.19158 -0.032042
0.013222 0.1928 -0.032015
