# .PCD v0.7 - Point Cloud Data file format
VERSION 0.7
FIELDS x y z
SIZE 4 4 4
TYPE F F F
COUNT 1 1 1
WIDTH 1503
HEIGHT 1
VIEWPOINT 0 0 0 1 0 0 0
POINTS 1503
DATA ascii
0.31580999 0.053557001 0.065367997
0.28942999 0.10159 0.051125001
0.29413 0.10401 0.049385
0.32049999 0.054735001 0.064167
0.30566001 0.10698 0.046475999
0.30774 0.10338 0.048007999
0.30757999 0.10599 0.047010999
0.31428 0.096795999 0.049603
0.31696999 0.096308999 0.049256999
0.32859001 0.074455999 0.056093
0.33136001 0.074078001 0.055500001
0.33008 0.074124999 0.056039002
0.32122001 0.095016003 0.049339
0.34625 0.070568003 0.054818001
0.3475 0.069096997 0.055748999
0.34781 0.070951 0.054609999
0.34878001 0.071718 0.054242
0.33682999 0.093772002 0.047915
0.34187001 0.095462002 0.046271998
0.34248999 0.094728 0.046319
0.34053001 0.098537996 0.045727
0.34356999 0.095604002 0.046096001
0.34064001 0.10009 0.044520002
0.34373 0.10145 0.043855
0.34735999 0.096982002 0.045143001
0.34478 0.10202 0.043233
0.34672999 0.10142 0.043510001
0.19216 0.0013023 0.10194
0.19201 0.0024908001 0.10157
0.16316999 0.060664002 0.082199998
0.19373 0.0079474999 0.097631998
0.16892 0.057298999 0.084218003
0.17995 0.03802 0.090177998
0.18154 0.036111001 0.092269003
0.18319 0.033016 0.092991002
0.18386 0.031518999 0.093638003
0.18863 0.02234 0.094402999
0.17388 0.048769001 0.086401001
0.17659 0.045256 0.089373998
0.18021999 0.037076 0.0898
0.2086 0.0043671001 0.098780997
0.20914 0.0059898999 0.097700998
0.18782 0.061255999 0.079328999
0.21435 0.011712 0.094019003
0.19023 0.070791997 0.075671002
0.19092 0.072085001 0.075707003
0.19622 0.064429998 0.077106997
0.20361 0.050808001 0.082199
0.20507 0.050788 0.081453003
0.19899 0.063606001 0.077095002
0.20017 0.060407002 0.078160003
0.19994 0.060153998 0.078125998
0.20021001 0.059935998 0.079097003
0.20798001 0.045922 0.081867002
0.20721 0.049178999 0.082480997
0.21604 0.030681999 0.087113
0.19913 0.064057 0.077225998
0.20026 0.062793002 0.077316999
0.21961001 0.032931998 0.085610002
0.21927001 0.036178999 0.084787004
0.21983001 0.034621999 0.084931999
0.22133 0.032368999 0.085892998
0.23423 0.032721002 0.084728003
0.23738 0.028955 0.084325001
0.2386 0.029607 0.084564999
0.24002001 0.030200001 0.083810002
0.241 0.030201999 0.083471999
0.24690001 0.032637998 0.083145998
0.22402 0.078240998 0.069155
0.25525001 0.033739001 0.080679998
0.23371001 0.084820002 0.064410001
0.23894 0.085124999 0.063822001
0.23846 0.086049996 0.063381001
0.23964 0.083848998 0.063712999
0.23903 0.090377003 0.062401
0.23761 0.090319 0.063013002
0.2456 0.086754002 0.062495999
0.27449 0.034738 0.077834003
0.24680001 0.087086998 0.062252998
0.24493 0.087738998 0.062213
0.24626 0.088368997 0.061496999
0.28595001 0.039019998 0.074960999
0.25871 0.089130998 0.059836
0.29556 0.047846001 0.070998996
0.29758 0.044043999 0.071575999
0.29383001 0.053429998 0.068968996
0.29442 0.053289 0.067897998
0.30882999 0.049290001 0.067688003
0.31702 0.054696001 0.06498
0.32317999 0.055996001 0.064085998
0.30824 0.10004 0.049095001
0.30779999 0.10176 0.049036998
0.30636001 0.10599 0.047472
0.30695 0.10439 0.048037
0.32551 0.092931002 0.049509
0.32988 0.084550001 0.051844001
0.34074 0.096809 0.046115998
0.34198999 0.10102 0.044721
0.34496 0.096075997 0.045593999
0.34614 0.096611001 0.045464002
0.18980999 0.0066772001 0.1001
0.19 0.0061646001 0.10048
0.19367 -0.00045528999 0.10219
0.19417 -0.0012251 0.10257
0.1911 0.0072005 0.099770002
0.19228999 0.0071405 0.10017
0.19322 0.0080350004 0.098500997
0.16339999 0.061331 0.083589002
0.16674 0.056575 0.084495001
0.16564 0.055959001 0.084909998
0.1938 0.0085744001 0.099078
0.19932 0.00055260002 0.10145
0.16369 0.065609999 0.081858002
0.20017 0.00028402 0.10057
0.19475 0.011222 0.098116003
0.16461 0.067455001 0.081252001
0.16415 0.066310003 0.081119001
0.17172 0.052827001 0.084553003
0.17031001 0.070307001 0.079334997
0.16926999 0.070730999 0.079426996
0.21249001 0.0084001999 0.09663
0.17857 0.071199998 0.078106999
0.17910001 0.071843997 0.077662997
0.2123 0.015983 0.093889996
0.21261001 0.015089 0.094397001
0.18832999 0.060484 0.079640999
0.18874 0.059381999 0.079875998
0.18918 0.058164001 0.080720998
0.20446 0.029394001 0.089736
0.18246 0.069797002 0.077708997
0.20174 0.035523001 0.088101998
0.20077001 0.036818001 0.087471999
0.18577 0.064405002 0.078597002
0.18961 0.059819002 0.080931
0.19536 0.048248999 0.084356003
0.19544999 0.047516 0.084370002
0.18932 0.060989998 0.080139004
0.18873 0.061110001 0.079281002
0.19169 0.056488 0.081029996
0.19183999 0.057643998 0.080921002
0.19334 0.057066999 0.080471002
0.21427 0.020127 0.091793001
0.19927999 0.049786001 0.083022997
0.19473 0.056839999 0.080082998
0.19933 0.049476001 0.082563996
0.19259 0.063841999 0.078349002
0.19320001 0.062762998 0.078602999
0.19401 0.061779998 0.079425
0.19498 0.060362998 0.079395004
0.19126999 0.067899004 0.076938003
0.19182 0.066970997 0.077519998
0.21551 0.025343999 0.089873001
0.21319 0.030006999 0.088155001
0.18994001 0.073136002 0.075034998
0.21574999 0.027376 0.089169003
0.21545 0.0264 0.089790002
0.21309 0.030734001 0.087292999
0.19535001 0.066234998 0.077308998
0.19568001 0.065752 0.077946998
0.19600999 0.066841997 0.077561997
0.2166 0.029515 0.088386998
0.21601 0.028717 0.088619001
0.2141 0.030386999 0.087638997
0.21499 0.029784 0.088329002
0.21627 0.030283 0.087664001
0.19925 0.061174002 0.079054996
0.20565 0.050236002 0.081889004
0.20092 0.060784001 0.078749999
0.20819999 0.046376001 0.082901999
0.20893 0.045513 0.083149999
0.21081001 0.043063 0.084133998
0.21229 0.040662002 0.084817
0.21155 0.041864999 0.084445998
0.2131 0.039662998 0.084858999
0.21698999 0.030847 0.087187
0.19536 0.074704997 0.074221
0.21465001 0.039140001 0.084744997
0.19705001 0.074276 0.074731
0.21664 0.038176998 0.084954999
0.21768001 0.037985999 0.084986001
0.2191 0.036586002 0.084774002
0.21844999 0.037572 0.084959
0.22011 0.033891998 0.085207999
0.21816 0.036888 0.08439
0.19998001 0.072517999 0.074781999
0.22391 0.033916 0.085405
0.20266999 0.072071999 0.074371003
0.20411 0.072318003 0.073968001
0.23106 0.031769 0.084569
0.23568 0.023642 0.087644003
0.23807999 0.024695 0.086952001
0.20774999 0.079781003 0.070442997
0.23833001 0.033714999 0.083325997
0.23999999 0.031019 0.084210999
0.2387 0.030221 0.084862001
0.21343 0.082795002 0.069259003
0.23991001 0.033932999 0.083429001
0.2412 0.031279001 0.084078997
0.241 0.034657001 0.083080001
0.24321 0.033089001 0.08207
0.21441001 0.082092002 0.068875
0.21614 0.080756001 0.068838
0.24228001 0.034591001 0.082912996
0.2428 0.033831 0.082231
0.24434 0.031596001 0.082918003
0.24546 0.034474 0.081800997
0.24465001 0.033785 0.082344003
0.24573 0.033821002 0.082138002
0.24482 0.033234999 0.082085997
0.24821 0.033317 0.08303
0.22420999 0.077671997 0.069038004
0.22299001 0.081193998 0.068429001
0.25132 0.033241 0.082221001
0.22411001 0.084972002 0.06679
0.2586 0.034366 0.081109002
0.23409 0.083255 0.066102996
0.26297 0.034984998 0.080208004
0.26925999 0.035468999 0.079221003
0.24357 0.085157 0.064341001
0.24403 0.088973999 0.061939999
0.27456 0.034768999 0.078391999
0.24557 0.089231998 0.061604999
0.24446 0.091274001 0.061932001
0.27836001 0.036026999 0.077661
0.24972001 0.087545 0.062394001
0.27982 0.036725 0.077398002
0.28084999 0.037280999 0.077248
0.28239 0.037370998 0.076798998
0.25533 0.089042 0.061500002
0.25384 0.088536002 0.061519001
0.2568 0.088866003 0.060789
0.28882 0.040573999 0.07463
0.28997001 0.040773001 0.073514998
0.26326001 0.089114003 0.059904002
0.26199001 0.088716 0.06013
0.28832999 0.04631 0.072047003
0.29119 0.041195001 0.073426001
0.28885001 0.047130998 0.072728999
0.28957 0.046154998 0.072782002
0.2911 0.041770998 0.074331999
0.29209 0.042075999 0.073689997
0.28850001 0.048422001 0.071676001
0.29075 0.045587 0.072544999
0.29210001 0.045830999 0.072488002
0.29480001 0.0425 0.072145
0.27399999 0.090164997 0.05841
0.29697001 0.053750001 0.068763003
0.29600999 0.053906001 0.068414003
0.29831001 0.051277 0.069251001
0.29844999 0.050751001 0.070292003
0.30157 0.045954999 0.071154997
0.27880999 0.092725001 0.056761999
0.30634999 0.048491001 0.069456004
0.30983999 0.050483 0.068382002
0.28533 0.09815 0.054141998
0.31364 0.052034002 0.067148
0.31927001 0.054666001 0.06549
0.32438999 0.056550998 0.063891999
0.32473999 0.057782002 0.063835002
0.32549 0.059487 0.063096002
0.30085999 0.10646 0.048253
0.30230001 0.10731 0.047764
0.30384001 0.10746 0.047350999
0.30939001 0.098088004 0.050822001
0.31114 0.097535998 0.050917
0.31327999 0.097188003 0.051075
0.33225 0.062394001 0.061140001
0.31468001 0.097188003 0.050625999
0.33462 0.063189998 0.060164001
0.32943001 0.078322999 0.055599
0.31935 0.095925003 0.050206002
0.33755001 0.067414999 0.058295
0.33824 0.06786 0.058033999
0.32403001 0.094191 0.050163001
0.32516 0.093313001 0.049993999
0.32602999 0.093277 0.050597999
0.33056 0.085304998 0.052965999
0.33032 0.083894998 0.052747998
0.32673001 0.092763998 0.050374001
0.33022001 0.087361999 0.052032001
0.33057001 0.086176001 0.052537002
0.32886001 0.091880001 0.050664
0.33210999 0.089373998 0.050652001
0.33133999 0.089610003 0.050925002
0.33030999 0.092028998 0.049699999
0.33131999 0.092487998 0.049377002
0.34290001 0.095839001 0.046224002
0.34555 0.097084001 0.045607999
0.34514001 0.096952997 0.046018001
0.34577 0.10052 0.044611
0.34575 0.10146 0.043999001
0.34724 0.098355003 0.045164
0.34766001 0.099850997 0.043891001
0.34643999 0.099416003 0.044921
0.19524001 -0.00014463 0.10207
0.19520999 0.00014388 0.10166
0.1957 0.0013313 0.10175
0.16436 0.058586001 0.084201999
0.16434 0.057216998 0.085238002
0.16376001 0.060159001 0.083897002
0.19691999 0.0018116001 0.10121
0.16303 0.06256 0.083120003
0.16327 0.063974999 0.082423002
0.19516 0.0092634996 0.098241001
0.20129 0.00034321001 0.10068
0.18445 0.030711999 0.092908002
0.18381 0.033473 0.096121997
0.18499 0.031346999 0.095343001
0.1848 0.032166 0.096597001
0.18495999 0.028991999 0.093261003
0.18483 0.030196 0.093771003
0.19496 0.010122 0.098264001
0.16993999 0.057270002 0.085630998
0.17091 0.055743001 0.086290002
0.17081 0.056200001 0.087604001
0.17034 0.055645 0.084905997
0.17171 0.053924002 0.085138999
0.17168 0.054662999 0.086305998
0.17290001 0.051862001 0.085914001
0.1736 0.050034001 0.086751997
0.19199 0.017883999 0.099067003
0.19236 0.017418001 0.098784998
0.19310001 0.017361 0.10032
0.20547999 0.0013924 0.10013
0.20737 0.0025456999 0.099073
0.20784 0.0027808 0.099218003
0.17167 0.070695996 0.078755997
0.17246 0.070276998 0.078792997
0.17327 0.070471004 0.079153001
0.20947 0.0075741 0.097158998
0.17595001 0.068921998 0.078868002
0.21092001 0.0084608002 0.096600004
0.17858 0.069955997 0.078001
0.21443 0.0088032 0.096345998
0.21551999 0.010127 0.095342003
0.18983001 0.057914998 0.081063002
0.19605 0.046154998 0.085164003
0.20364 0.031226 0.089328997
0.20534 0.029414 0.089443997
0.21349999 0.01342 0.094879001
0.18132 0.072375998 0.077166997
0.18193001 0.071281001 0.077408001
0.19817001 0.040406998 0.086273998
0.19930001 0.039140999 0.087076999
0.21225999 0.017362 0.092748001
0.18627 0.064482003 0.079634003
0.18708999 0.063052997 0.079614997
0.18562999 0.065325998 0.078750998
0.18822999 0.062245999 0.080337003
0.19058 0.056944001 0.081095003
0.18849 0.062371999 0.079708003
0.19665 0.048523001 0.084298998
0.21352001 0.018144 0.092440002
0.2067 0.030060001 0.088965997
0.20807 0.030503999 0.088601999
0.20848 0.030289 0.088913001
0.21481 0.021737 0.091241002
0.19502001 0.057482999 0.080545001
0.2006 0.049826 0.082390003
0.21005 0.030316001 0.088909
0.21527 0.023832001 0.090494998
0.19231001 0.065270998 0.078080997
0.19568001 0.059034001 0.080277003
0.19585 0.058192 0.080022
0.19115999 0.070762999 0.076512001
0.21106 0.030429 0.088353999
0.18934999 0.074128002 0.074694
0.19039001 0.074837998 0.074662
0.20200001 0.050489999 0.082386002
0.19133 0.075652003 0.074469
0.19791999 0.063281998 0.078022003
0.19649 0.066467002 0.077012002
0.19255 0.076047003 0.074248999
0.19915999 0.062339 0.078373
0.19787 0.066694997 0.077105001
0.19869 0.065575004 0.077145003
0.2014 0.061634999 0.078074999
0.2079 0.047876999 0.082492001
0.19345 0.075517997 0.074026003
0.19596 0.073755004 0.073919997
0.19802 0.073095001 0.074603997
0.22099 0.033922002 0.085285001
0.22169 0.033105999 0.08563
0.19915 0.073188998 0.074657001
0.22249 0.033243999 0.085773997
0.22059 0.036988001 0.084964
0.22168 0.035999998 0.084934004
0.22188 0.034582999 0.085684001
0.20124 0.072316997 0.074575
0.22454 0.033124998 0.085293002
0.22569001 0.033663999 0.085081004
0.22713999 0.034054 0.084996998
0.23480999 0.019324001 0.089322001
0.23466 0.020640001 0.089221999
0.23421 0.021571999 0.088564001
0.22835 0.034085002 0.085193999
0.23533 0.022201 0.088559002
0.23683999 0.020231999 0.089340001
0.20663001 0.072751001 0.073224999
0.20562001 0.072318003 0.073680997
0.22983 0.032375999 0.085633002
0.2071 0.073692001 0.073270999
0.22916 0.032885998 0.085337996
0.20661999 0.075372003 0.072568998
0.20647 0.076351002 0.071813002
0.20689 0.074804999 0.072557002
0.23146001 0.032168001 0.084703997
0.23113 0.032357 0.085345
0.23802 0.021403 0.089170001
0.23848 0.021881999 0.088174
0.20703 0.078649998 0.071038
0.23267999 0.032354999 0.084806003
0.23724 0.024731999 0.087002002
0.23689 0.025016 0.086572997
0.24007 0.022024 0.087835997
0.23908 0.024266001 0.087667003
0.24006 0.024143999 0.086698003
0.24096 0.022291999 0.087733001
0.23525999 0.033271998 0.084257998
0.24056 0.023448 0.087384
0.20897999 0.080476999 0.070269004
0.21012001 0.081566997 0.070193999
0.23853 0.030538 0.084455997
0.23695999 0.033523999 0.084141999
0.23711 0.033197001 0.083517
0.21187 0.082376003 0.069095001
0.23954 0.031470999 0.084158003
0.24074 0.032000002 0.084135003
0.21355 0.08281 0.068521
0.24202 0.032533001 0.083440997
0.21684 0.078694999 0.070038997
0.21746001 0.077754997 0.070814997
0.21855 0.076963998 0.070000999
0.21668001 0.079943001 0.069403
0.21663 0.079539001 0.069943003
0.24222 0.031778 0.083627999
0.24270999 0.031197 0.083550997
0.2191 0.075925 0.070583001
0.2198 0.075718001 0.070548996
0.24365 0.033073001 0.082976997
0.24402 0.032644 0.083622999
0.24471 0.033339001 0.082970999
0.24539 0.031971999 0.082944997
0.24415 0.035305999 0.082509004
0.24507 0.033089001 0.083610997
0.22169 0.076063998 0.070866004
0.24522001 0.034878001 0.082029
0.24625 0.033521999 0.082869001
0.24676 0.035323001 0.081735
0.2472 0.034832999 0.081628002
0.24770001 0.033994 0.082814999
0.22256 0.076228 0.070552997
0.24733 0.034596998 0.081446998
0.22321001 0.079709999 0.068879001
0.22420999 0.076924004 0.069871999
0.24805 0.035337999 0.081426002
0.24845999 0.036279999 0.081684999
0.24907 0.034572002 0.082290001
0.22274999 0.082346998 0.068180002
0.24948999 0.036855001 0.081428997
0.22417 0.083442003 0.067069001
0.22368 0.08388 0.067451
0.25261 0.033833999 0.081780002
0.2252 0.086107999 0.066165999
0.22658999 0.086594999 0.065673001
0.25604999 0.033999 0.081382997
0.25518 0.033723999 0.081574
0.22745 0.087163001 0.065649003
0.22835 0.086714998 0.065816
0.22916 0.087173998 0.065311
0.25668001 0.034258001 0.080857001
0.2306 0.087237999 0.064777002
0.23133001 0.087314002 0.065054998
0.25942001 0.034515999 0.080642998
0.26025 0.034632001 0.080796003
0.26141 0.034441002 0.080300003
0.23243 0.086985998 0.064777002
0.23525999 0.081982002 0.066395
0.23332 0.085763998 0.065205
0.23402999 0.084466003 0.065711997
0.23630001 0.081390999 0.066629
0.23745 0.081404001 0.066551
0.26429 0.035149999 0.079905003
0.23694 0.088794999 0.063276
0.23701 0.089579001 0.063348003
0.23801 0.086851999 0.063974001
0.23714 0.088335998 0.063571997
0.23944999 0.085784003 0.064662002
0.23981 0.082563996 0.065738
0.24029 0.083658002 0.065215997
0.23839 0.086975001 0.064398997
0.24006 0.084307 0.065164
0.24117 0.086631 0.06397
0.2405 0.087623999 0.063539997
0.24162 0.085546002 0.064152002
0.23978999 0.089276999 0.063061997
0.27063999 0.035409 0.079228997
0.27114999 0.034327999 0.079086997
0.24250001 0.090295002 0.061763
0.24473999 0.085709997 0.063712999
0.24635001 0.086144 0.063628003
0.24357 0.090470001 0.061806999
0.24417 0.089819998 0.061749998
0.27377999 0.035556 0.078933999
0.24545 0.089863002 0.06174
0.27588999 0.035365 0.078325003
0.24709 0.086549997 0.062986001
0.24618 0.090449996 0.061287999
0.27684999 0.035553999 0.077877998
0.25088999 0.087641999 0.062217999
0.28334999 0.038158 0.076162003
0.28527001 0.038499001 0.075681999
0.25856999 0.088538997 0.061124999
0.28597 0.039065 0.075450003
0.26012 0.088701002 0.060295001
0.28738001 0.039898001 0.075060003
0.26159999 0.088873997 0.059826002
0.29003 0.041373 0.074556999
0.26462999 0.088884003 0.060068
0.26523 0.089436002 0.059831001
0.28794 0.047862001 0.071373999
0.26682001 0.088875003 0.059811998
0.28865999 0.049593002 0.071321003
0.29258001 0.041680999 0.073037997
0.2678 0.088933997 0.059416
0.29402 0.042822 0.073214002
0.29368001 0.042413 0.072792999
0.28933999 0.050783001 0.071267001
0.29510999 0.043370001 0.072351001
0.29347 0.046262 0.071575001
0.26973 0.088808998 0.059214
0.27122 0.089061998 0.058749001
0.29598999 0.043643001 0.072117001
0.29271001 0.053034998 0.069450997
0.29455999 0.047141001 0.071484998
0.27252999 0.089883998 0.058582999
0.29888999 0.044615999 0.071452998
0.29539999 0.054292001 0.068697996
0.29787001 0.049481999 0.069994003
0.30028999 0.045604002 0.070961997
0.29813999 0.052361 0.068604
0.27630001 0.091720998 0.057390001
0.27767 0.092041999 0.057243999
0.30148 0.045924 0.071102999
0.30249 0.046659999 0.071036004
0.30395001 0.047104001 0.069898002
0.30498001 0.047784001 0.069504
0.27996001 0.093969002 0.056232002
0.28088 0.094663002 0.055964001
0.30880001 0.049772002 0.068954997
0.30728999 0.049012002 0.069068
0.28213999 0.095716998 0.055367
0.31097999 0.05122 0.067869999
0.28667 0.098520003 0.053357001
0.28707999 0.099753 0.052664001
0.28887001 0.10016 0.052595999
0.31481999 0.052894998 0.066583
0.28977001 0.10143 0.051872
0.29157999 0.10206 0.051925
0.31726 0.054450002 0.065948002
0.31606001 0.053624 0.066285998
0.29273 0.10251 0.051676001
0.29374999 0.10318 0.051173002
0.29319 0.10366 0.049927998
0.32038 0.054830998 0.065260999
0.31977999 0.054363001 0.065709002
0.32128 0.055165999 0.065031998
0.29613 0.10407 0.050083
0.29756999 0.10478 0.049414001
0.29883 0.10506 0.049272001
0.32477999 0.058731001 0.063106999
0.29971999 0.10582 0.048618998
0.32709 0.060024001 0.062499002
0.32839 0.060376 0.062109999
0.30842 0.097961001 0.050641
0.30770001 0.098727003 0.051011
0.32977 0.061454002 0.061896998
0.30756 0.10051 0.049786001
0.32824001 0.064410001 0.060166001
0.32734001 0.065171003 0.060113002
0.32837 0.063497998 0.060502999
0.30450001 0.10674 0.047770001
0.30506 0.10697 0.047747001
0.3057 0.1039 0.048640002
0.30605999 0.10588 0.047791
0.30544001 0.10526 0.048393
0.30715001 0.10286 0.048425
0.32832 0.064792998 0.059907001
0.32806 0.064121999 0.059987999
0.32922 0.063970998 0.060447998
0.33089 0.061788999 0.061271001
0.32907 0.065518998 0.059788998
0.32861999 0.064274997 0.060052
0.31226 0.097081997 0.050753001
0.33333999 0.063095003 0.060681999
0.33136001 0.066513002 0.059273999
0.33210999 0.065098003 0.059643999
0.33337 0.065848 0.059415001
0.32767999 0.075912997 0.056913
0.32815999 0.074447997 0.056648999
0.32896 0.073504999 0.057029001
0.33431 0.066344 0.059039999
0.33245999 0.067183003 0.058587998
0.31626999 0.097048998 0.050414
0.31733999 0.096998997 0.050078001
0.32865 0.076892003 0.056162
0.33011001 0.073647998 0.056738
0.33368999 0.067846 0.05821
0.31845 0.096432 0.050466999
0.32889 0.077379003 0.055663001
0.33563 0.066577002 0.058609001
0.3371 0.064733997 0.059655
0.33565 0.064066999 0.059909001
0.33460999 0.067906 0.058249
0.33195999 0.073261999 0.056552999
0.32036 0.095816001 0.050214
0.32942 0.078979 0.054908
0.33469999 0.069790997 0.057879001
0.33017999 0.080109 0.054710001
0.33443001 0.071131997 0.057092998
0.33884001 0.065026999 0.059018999
0.32174999 0.095311999 0.050326001
0.33324999 0.073642999 0.056534
0.33396 0.072581999 0.056602001
0.34020999 0.066050999 0.058639999
0.3303 0.081831001 0.054060001
0.33993 0.068311997 0.057183001
0.34081 0.066348001 0.058559
0.34233001 0.067221001 0.058015998
0.33052 0.088169999 0.051693998
0.3276 0.092492998 0.050714999
0.34128001 0.06825 0.057351001
0.34294999 0.068945996 0.056634001
0.34327 0.068025999 0.056986999
0.33252999 0.089584 0.050253998
0.34380001 0.068906002 0.056565002
0.34445 0.068235002 0.05641
0.33249 0.093179002 0.049040999
0.34568 0.068774998 0.055886
0.33351001 0.090612002 0.050331
0.33401999 0.093298003 0.04902
0.33465999 0.091394998 0.049417999
0.34731001 0.069499999 0.055709001
0.33557001 0.092404999 0.048900999
0.33508 0.093887001 0.048344001
0.33574 0.094108 0.048365999
0.33570999 0.092958003 0.048489001
0.3414 0.097354002 0.046252001
0.34108999 0.098775998 0.045738
0.34165999 0.099228002 0.04597
0.34316 0.096763998 0.046542998
0.34325001 0.099688999 0.045713998
0.34386 0.10085 0.044741001
0.34437001 0.10037 0.045008998
0.34580001 0.0977 0.045846999
0.34694999 0.098356999 0.045386001
0.34672999 0.1001 0.044581
0.19061001 0.0044335001 0.10129
0.19086 0.0035707001 0.10138
0.16833 0.057247002 0.084288999
0.16822 0.057610001 0.085560001
0.18697999 0.027339 0.096371002
0.18664999 0.026828 0.095110998
0.18762 0.025807999 0.096261002
0.18739 0.025193 0.095177002
0.17297 0.052308999 0.087453
0.17331 0.051323 0.087461002
0.17423999 0.049557 0.087548003
0.17526001 0.047483999 0.088678002
0.19103999 0.017432 0.096166
0.19295 0.014663 0.097313002
0.16484 0.067922004 0.080945
0.16633999 0.069213003 0.080104001
0.16783001 0.069750004 0.079392999
0.20683999 0.0018865 0.099918
0.20947 0.0065525002 0.097742997
0.21071 0.0085182004 0.097108997
0.2145 0.0090076998 0.097759999
0.20325001 0.032398999 0.088468
0.20576 0.029510999 0.090172
0.21261001 0.016983001 0.093767002
0.18314999 0.069146 0.078006998
0.20221999 0.034798 0.088618003
0.20279001 0.033229999 0.088569999
0.21404 0.013077 0.094870999
0.21472999 0.01163 0.095229
0.18425 0.067648999 0.078318998
0.19354001 0.058366999 0.081234001
0.19145 0.069383003 0.076920003
0.19070999 0.068880998 0.076480001
0.19063 0.074042998 0.075213999
0.19435 0.075695999 0.074307002
0.23637 0.023286 0.088721998
0.23746 0.020907 0.088991001
0.23835 0.033918001 0.083962001
0.24637 0.036353 0.082374997
0.24986 0.033392999 0.082859002
0.25025001 0.035354 0.081924997
0.25152001 0.036127999 0.081074998
0.25097001 0.036947999 0.081312001
0.25444001 0.034007002 0.082225002
0.25584999 0.034979001 0.082718998
0.23882 0.081712 0.065934002
0.26761001 0.035608999 0.079306997
0.23835 0.090759002 0.06323
0.27252001 0.034738 0.079011001
0.24350999 0.085716002 0.064241998
0.24886 0.087346002 0.062949002
0.29007 0.051640999 0.070292003
0.29776001 0.044165 0.072708003
0.29648 0.043777 0.072797999
0.29938 0.045072 0.071950004
0.30012 0.045308001 0.071961001
0.29640999 0.048303999 0.070358001
0.27542001 0.090957001 0.057732999
0.30263999 0.046402998 0.070960999
0.30404001 0.048067998 0.071572997
0.30394 0.047297001 0.070417002
0.2816 0.095034003 0.055413
0.31253001 0.052018002 0.067799002
0.2879 0.099358 0.053270001
0.29499 0.10372 0.050379999
0.30186999 0.10579 0.049206998
0.32604 0.064517997 0.060856
0.32486001 0.063689999 0.061101999
0.32562 0.062475 0.061640002
0.30318001 0.10604 0.048411001
0.32686999 0.062974997 0.060945999
0.30638 0.10019 0.050749
0.30728 0.10178 0.049892999
0.30654001 0.10295 0.049451999
0.33057001 0.064756997 0.060272999
0.32991001 0.066145003 0.059712999
0.33302 0.068965003 0.058626
0.33188 0.068474002 0.058656
0.33098999 0.072630003 0.057128999
0.33019999 0.081115 0.053901002
0.32238001 0.095376 0.050039001
0.33034 0.083342999 0.053286001
0.34088001 0.065663002 0.058191001
0.33263999 0.090728 0.050445002
0.33454999 0.092430003 0.04936
0.34248999 0.097824 0.046408001
0.34450999 0.097533002 0.046036001
0.19789 0.0012659 0.10145
0.18266 0.033199999 0.091410004
0.18904001 0.022336001 0.095732003
0.19307999 0.016393 0.098214
0.17178001 0.055255 0.087981001
0.17222001 0.053920999 0.087860003
0.20574 0.001701 0.10148
0.17441 0.069900997 0.079162002
0.17749999 0.069046997 0.078441001
0.19627 0.045147002 0.085018001
0.20003 0.038201001 0.087371998
0.19717 0.043251 0.085634999
0.19753 0.042281002 0.085670002
0.20252 0.034031 0.088375002
0.20716999 0.030272 0.089621998
0.18817 0.063097 0.079769
0.21388 0.017369 0.093556002
0.21467 0.019083001 0.093097001
0.21512 0.021318 0.092168003
0.21515 0.022662999 0.091139004
0.20057 0.050367001 0.082947001
0.212 0.030007999 0.089351997
0.19095001 0.073003002 0.076249003
0.2138 0.029965 0.088923
0.19679999 0.064631 0.079388
0.20622 0.050239999 0.082304999
0.19339 0.076806001 0.074453004
0.19967 0.065839998 0.077367
0.19981 0.064672001 0.077780999
0.20094 0.063575998 0.078380004
0.21363001 0.039804999 0.085491002
0.19614001 0.075162999 0.074892998
0.22251999 0.036185998 0.085418001
0.22339 0.035208002 0.085297003
0.22526 0.034582999 0.085187003
0.22627001 0.034754999 0.085372001
0.20667 0.077472001 0.071878001
0.20714 0.079589002 0.071420997
0.23951 0.034281999 0.083499998
0.21602 0.080949001 0.069470003
0.24526 0.035558999 0.082264997
0.25260001 0.037648 0.081116997
0.25286001 0.036796998 0.081156
0.25415999 0.037207998 0.080953002
0.22691999 0.086827002 0.066363998
0.23462 0.082276002 0.067385003
0.26486 0.035222001 0.079907998
0.26611 0.035367001 0.079862997
0.23755001 0.088163003 0.064313002
0.25283 0.088251002 0.062144998
0.2836 0.037944 0.076699004
0.28499001 0.038444001 0.076357
0.25742 0.088138998 0.061705999
0.26842999 0.089057997 0.059946999
0.29846001 0.049655002 0.071207002
0.29745001 0.048928 0.070743002
0.29987001 0.046195 0.072407
0.29853001 0.054566 0.068700999
0.29954001 0.052407 0.069372997
0.29885 0.053436 0.068697996
0.3055 0.047887001 0.070138
0.30017 0.10514 0.049885999
0.32358 0.063472003 0.062334001
0.32429001 0.061825 0.061976001
0.30384001 0.10497 0.048930999
0.32565001 0.065499 0.060497001
0.32462001 0.065422997 0.061248999
0.32593 0.062222999 0.062185999
0.32719001 0.062877998 0.061684001
0.32674 0.066031002 0.060026001
0.32828999 0.063249998 0.061409999
0.32811001 0.066667996 0.060182001
0.32973 0.067222998 0.060022
0.33015001 0.068456002 0.05962
0.32734001 0.074493997 0.057629999
0.3299 0.072471999 0.057727002
0.33318999 0.072637998 0.057390999
0.33158001 0.071822003 0.057636999
0.33375999 0.071005002 0.057969
0.34003001 0.065142997 0.059145
0.32337001 0.095431 0.050845001
0.34015 0.068162002 0.058307
0.33925 0.067463003 0.058715001
0.33047 0.091155 0.050903998
0.33035001 0.089477003 0.051890001
0.33171999 0.091619998 0.050441999
0.33306 0.092528 0.049630001
0.34384 0.098297 0.046317998
0.34490001 0.099363998 0.045483999
0.19117001 0.0028824001 0.10244
0.16354001 0.066293001 0.083065003
0.16320001 0.064609997 0.083567999
0.19461 0.0089707999 0.099042997
0.1899 0.02114 0.096479997
0.17366999 0.051203001 0.088503003
0.17462 0.050039999 0.089686997
0.17567 0.046344001 0.088558003
0.17663001 0.046735 0.091348
0.17642 0.046436999 0.090062
0.17730001 0.045189999 0.090953
0.17948 0.040105 0.091338001
0.18004 0.038883001 0.091733001
0.20226 0.00053645001 0.10087
0.20438001 0.0013411 0.1018
0.20773 0.0031077999 0.10079
0.21574 0.010219 0.096828997
0.20545 0.028953999 0.091750003
0.20640001 0.029152 0.091623999
0.19111 0.058235001 0.081822
0.19806001 0.049005002 0.083584003
0.19825 0.049674001 0.084705003
0.19468001 0.058377001 0.080798998
0.19236 0.068686001 0.077528998
0.21566001 0.024577999 0.090452999
0.19945 0.061468001 0.080237001
0.20556 0.052051999 0.083245002
0.20630001 0.050964002 0.083085999
0.20841999 0.048698999 0.083504997
0.20166001 0.061834 0.078910001
0.22442 0.035843 0.085557997
0.2378 0.02417 0.088225
0.23288 0.033215001 0.085349001
0.24752 0.036798999 0.082079999
0.25856999 0.034878999 0.082607001
0.26493999 0.035378002 0.081297003
0.23902 0.087324999 0.065756999
0.27219999 0.036332 0.078754
0.27504 0.036649 0.078662001
0.28507999 0.038578 0.076899998
0.26104 0.089071997 0.061172001
0.29528999 0.043019999 0.073347002
0.29161 0.052147001 0.070742004
0.27160999 0.088790998 0.059900999
0.27307001 0.089097001 0.059361
0.28981999 0.10085 0.053183001
0.28902 0.10034 0.053173002
0.29793999 0.10465 0.050191
0.29927 0.10493 0.050200999
0.32328001 0.061526999 0.063137002
0.32255 0.062802002 0.062684998
0.32493001 0.061462998 0.063095003
0.30272001 0.10495 0.049605999
0.32492 0.066940002 0.060826
0.30504999 0.10398 0.049885001
0.30625999 0.10155 0.050434999
0.32879999 0.068746999 0.059801999
0.32730001 0.068097003 0.059944
0.32776001 0.072608002 0.057927001
0.32901999 0.071618997 0.058575001
0.33069 0.071226001 0.05841
0.33295 0.070244998 0.058301002
0.33008999 0.090775996 0.051398002
0.19009 0.0069498001 0.10188
0.16384 0.060426999 0.085375004
0.16343001 0.061811 0.084969997
0.18012001 0.039030999 0.092734002
0.18069001 0.037643 0.092161
0.18153 0.036892999 0.093330003
0.19093999 0.018825 0.097451001
0.19179 0.017998001 0.097928002
0.17319 0.052553002 0.088835001
0.17227 0.053215999 0.087245002
0.20231999 0.00097001001 0.10266
0.20695999 0.0024591 0.10133
0.17058 0.071289003 0.080542997
0.20907 0.0042822999 0.10037
0.17265999 0.071023002 0.079975002
0.20993 0.0069269999 0.098932996
0.17547999 0.069861002 0.079957999
0.17768 0.069603004 0.080044001
0.20101 0.035967 0.088229999
0.1832 0.069329999 0.079273
0.18622001 0.064751998 0.080681004
0.19053 0.059319999 0.081754997
0.19122 0.05954 0.081949003
0.20762999 0.029882999 0.090818003
0.20893 0.030105 0.090418003
0.19286001 0.067098998 0.078056
0.19322 0.065803997 0.078217
0.19291 0.067896999 0.078530997
0.21359999 0.029452 0.089957997
0.19211 0.069320001 0.078565001
0.19182 0.069995001 0.078098997
0.21585999 0.027048999 0.090065002
0.19509999 0.067534998 0.078484997
0.20021001 0.060605001 0.080527999
0.20513999 0.051642999 0.082842998
0.20882 0.047839001 0.084321998
0.20840999 0.046579 0.083889
0.20959 0.046273001 0.084890001
0.19275001 0.076459996 0.075278997
0.19889 0.066542 0.077601999
0.20577 0.073276997 0.075170003
0.20471001 0.072916999 0.075429998
0.20713 0.073834002 0.074499004
0.20697001 0.075986996 0.073900998
0.20654 0.078340001 0.073054001
0.23393001 0.033093002 0.085352004
0.24097 0.022856999 0.088854
0.24047001 0.022537 0.089311004
0.23686001 0.034676999 0.085281998
0.23931 0.035493001 0.084712997
0.21423 0.081832998 0.069986001
0.24081001 0.036091 0.084618002
0.21517 0.081448004 0.070592999
0.22305 0.083379999 0.069256
0.24953 0.037441999 0.081882
0.22567999 0.086179003 0.067442
0.25477999 0.036168002 0.082523003
0.2406 0.084147997 0.066702999
0.24319001 0.085812002 0.065837003
0.27340999 0.036386002 0.078739002
0.27669001 0.036929999 0.078523003
0.27761999 0.037046999 0.078330003
0.25795999 0.088651001 0.062569
0.28894001 0.049045 0.072942004
0.29278001 0.042367 0.074313998
0.26773 0.089331999 0.060446002
0.29409999 0.042819999 0.074175999
0.29126999 0.052937001 0.070987999
0.29622 0.043995 0.073639996
0.29249999 0.053954002 0.070634998
0.27390999 0.089693002 0.059273999
0.27467 0.088941 0.059475001
0.29857001 0.045968998 0.073041998
0.29666999 0.054962002 0.069436997
0.29651001 0.056125998 0.069859996
0.27763 0.092853002 0.058566999
0.30043 0.054124001 0.068765998
0.3066 0.048606999 0.070446998
0.30763 0.049164001 0.069839999
0.30719 0.049107 0.069931
0.31913 0.055054002 0.067161001
0.32021999 0.055311002 0.066609003
0.29734999 0.10398 0.050579999
0.29855001 0.10398 0.051578
0.32153001 0.062334999 0.063070998
0.32394999 0.064493999 0.062240999
0.32686001 0.060817 0.063776001
0.3096 0.098412 0.052023999
0.32583001 0.067680001 0.060332
0.31130001 0.098098002 0.052221999
0.33192 0.062844001 0.061967999
0.31356999 0.097034 0.052007999
0.32648 0.073523998 0.058347002
0.32694 0.072605997 0.058729999
0.33118001 0.070050001 0.058820002
0.32012001 0.096455 0.051240999
0.33035001 0.080279 0.055904001
0.32347 0.095764004 0.051711999
0.32883999 0.091922998 0.051833998
0.19019 0.0051207999 0.10231
0.19441 -0.00080510997 0.1042
0.19517 2.3921e-05 0.1037
0.19535001 0.00091330998 0.10332
0.19126 0.0072999001 0.10166
0.16434 0.0579 0.085801996
0.16458 0.057783 0.086502001
0.16394 0.059149999 0.085662
0.16614 0.057103001 0.086152002
0.16317999 0.063474 0.084400997
0.19459 0.0093104001 0.1
0.16937999 0.057886999 0.085584
0.18177 0.034731999 0.092667997
0.19446 0.011729 0.099248998
0.17829999 0.042342 0.090526998
0.19029 0.020339999 0.096920997
0.16456001 0.067349002 0.082773998
0.20104 0.0010218 0.1025
0.16628 0.069431998 0.081306003
0.20801 0.0035319 0.10051
0.17208999 0.071317002 0.080376998
0.17331 0.070997 0.080440998
0.20931999 0.0062823002 0.09962
0.2098 0.0081807002 0.098902002
0.17591 0.069622003 0.080328003
0.21128 0.0093566002 0.098480999
0.17869 0.070548996 0.079521
0.17884 0.071424998 0.079080999
0.21565001 0.0099879997 0.097796999
0.20465 0.029905999 0.091041997
0.21371999 0.014242 0.095959999
0.21255 0.015988 0.094861001
0.18193001 0.072182 0.078635
0.18071 0.072731003 0.078941002
0.19668999 0.044858001 0.086912997
0.18704 0.063330002 0.080816001
0.19588 0.048632 0.085894004
0.18773 0.062350001 0.081726998
0.18881001 0.060961001 0.081831999
0.18897 0.060952 0.080820002
0.21353 0.015822001 0.095449999
0.21448 0.017499 0.094287001
0.19227999 0.058479 0.081611
0.21561 0.018642001 0.094609998
0.21520001 0.018913999 0.093473002
0.21574999 0.021407001 0.092635997
0.21117 0.029618001 0.090470999
0.21197 0.030175 0.089910999
0.19441999 0.059609 0.081175998
0.21610001 0.022979001 0.092289001
0.19542 0.060979001 0.080844
0.20089 0.051123999 0.084198996
0.20202 0.051502001 0.083687
0.2015 0.050751001 0.083237998
0.21600001 0.024064999 0.091369003
0.19386999 0.065140001 0.079314999
0.19384 0.064726003 0.079274997
0.19422001 0.063591003 0.079724997
0.21625 0.024863999 0.091742001
0.19363999 0.066203997 0.079149
0.21618 0.026478 0.091466002
0.19124 0.071314998 0.077726997
0.20349 0.051734 0.083320998
0.1913 0.073039003 0.076989003
0.21603 0.028894 0.089707002
0.21654999 0.027891001 0.090598002
0.19163001 0.075268 0.075622998
0.19615 0.068081997 0.078084998
0.19876 0.062950999 0.080164999
0.19733 0.067828 0.078426003
0.20156001 0.061145999 0.080329999
0.20727 0.049835 0.083754003
0.21071 0.045186002 0.084863998
0.21259999 0.041480001 0.085523002
0.21171001 0.042948999 0.085210003
0.21297 0.040637001 0.085736997
0.19453999 0.077402003 0.075404003
0.20084 0.065572001 0.078434996
0.20031001 0.066563003 0.077954002
0.20174 0.064218998 0.078755997
0.21512 0.039792001 0.085923001
0.19647001 0.076011002 0.075320996
0.2172 0.038972002 0.086465999
0.19828001 0.075104997 0.075897999
0.21901999 0.038357999 0.086392
0.19899 0.073982999 0.075972997
0.22059999 0.037459001 0.086560003
0.20129 0.072988003 0.075589001
0.22283 0.036479 0.086420998
0.22449 0.035983 0.086570002
0.22639 0.034952 0.086373001
0.22741 0.034926999 0.086084999
0.23499 0.021748001 0.089369997
0.23477 0.021181 0.090149
0.23644 0.020602999 0.090231001
0.22829001 0.034579001 0.086429998
0.23560999 0.021832 0.089583002
0.22968 0.033748001 0.086142004
0.23052999 0.034318998 0.086580001
0.23649 0.023119001 0.089671001
0.23739 0.02121 0.089501001
0.20659 0.077242002 0.073553003
0.20691 0.079104997 0.072686002
0.23153 0.033496998 0.086152002
0.23789001 0.024056001 0.088972002
0.2384 0.022662001 0.089495003
0.23734 0.022311 0.090029001
0.20815 0.080936 0.072247997
0.23357999 0.034072001 0.085708998
0.20914 0.081474997 0.071635999
0.24084 0.02368 0.088715002
0.21185 0.082782 0.070831999
0.2138 0.082183003 0.070739001
0.21487001 0.081961997 0.069897003
0.21634001 0.078663997 0.071162
0.21616 0.079751 0.070901997
0.21861 0.076490998 0.072471
0.21788999 0.077886999 0.072010003
0.21887 0.076247998 0.071474999
0.24218 0.035427 0.083567001
0.24384999 0.036382999 0.083525002
0.24494 0.036754001 0.083522998
0.22417 0.077513002 0.071050003
0.22480001 0.078258 0.070969999
0.22390001 0.080554001 0.070448004
0.22382 0.079397999 0.069527999
0.22443999 0.079122998 0.070730001
0.22329 0.081822999 0.069494002
0.24821 0.037531 0.082847998
0.25062001 0.034502 0.082379997
0.25126001 0.034426998 0.082934998
0.22353999 0.084293 0.068866
0.25202 0.035174999 0.082942002
0.25264999 0.034352999 0.082960002
0.25224 0.038527999 0.082258999
0.25057 0.038259 0.081864998
0.2536 0.035773002 0.082621001
0.25393 0.035985999 0.081635997
0.22712 0.086595997 0.067469001
0.25365001 0.038614001 0.081795
0.25628 0.034494001 0.082413003
0.25729999 0.034715001 0.082895003
0.23052 0.087167002 0.066035002
0.22967 0.087241001 0.066641003
0.26021999 0.035 0.082341999
0.2315 0.087058 0.066275999
0.2344 0.083189003 0.067097001
0.23367999 0.085345998 0.066962004
0.23633 0.081292003 0.067916997
0.23298 0.086429 0.066477999
0.2617 0.035270002 0.081749998
0.24041 0.082523003 0.067538001
0.24043 0.083434001 0.066696003
0.24033 0.089725003 0.064639002
0.2423 0.086103 0.065467998
0.27063999 0.036467001 0.080155
0.24473999 0.086235002 0.065332003
0.27169999 0.036694001 0.080320999
0.24607 0.086459003 0.064972997
0.27445999 0.036986001 0.078570001
0.24749 0.086769998 0.064551003
0.27911001 0.038284 0.078171998
0.28202 0.037941001 0.077739999
0.25378001 0.088730998 0.062396999
0.25446999 0.088596001 0.063171998
0.28402999 0.038288999 0.077101998
0.25545001 0.088340998 0.062298998
0.25654 0.088241003 0.061978001
0.25626999 0.088242002 0.062971003
0.28615999 0.039377 0.076846004
0.26049 0.089135997 0.062210999
0.28904 0.040835999 0.076454997
0.28764001 0.040272001 0.076647997
0.26639 0.089560002 0.061248999
0.28935 0.050330002 0.072525002
0.29271001 0.042479999 0.074796997
0.29401001 0.042649001 0.074028999
0.26894 0.089443997 0.060885001
0.29067001 0.051831 0.071562998
0.29565001 0.043726001 0.073899999
0.27181 0.088754997 0.060660001
0.29453999 0.047352999 0.072972
0.27289999 0.088569 0.059836
0.27419001 0.088650003 0.060621999
0.29752001 0.045485001 0.073533997
0.29782999 0.044845 0.073108003
0.27522999 0.089170001 0.060493998
0.29699999 0.048845001 0.072347
0.27553999 0.090603001 0.059292
0.27627999 0.089377001 0.059997998
0.29736 0.049086001 0.071263
0.29385 0.054919999 0.070185997
0.27553001 0.091343999 0.058800001
0.27632001 0.091868997 0.058582
0.29940999 0.050413001 0.071156003
0.29811999 0.055360999 0.068931997
0.30015001 0.051484 0.070799999
0.29975 0.054687999 0.068691
0.30103001 0.053320002 0.069447003
0.30068001 0.052664001 0.069698997
0.29971001 0.055658001 0.068884
0.27974999 0.094333 0.057668999
0.30543 0.048886999 0.071091004
0.28222001 0.096189998 0.056786999
0.28084999 0.094971001 0.057087999
0.31064999 0.050551001 0.069553003
0.28547999 0.098379999 0.055406999
0.31255999 0.051874001 0.068828002
0.31162 0.0513 0.069496997
0.28707999 0.098902002 0.054713
0.28834999 0.099988997 0.054251999
0.28968 0.099963002 0.054260999
0.31542999 0.053544 0.068314999
0.29067001 0.10066 0.054055002
0.31376001 0.058414999 0.065842003
0.31417999 0.058100998 0.065778002
0.31492001 0.059266999 0.065173
0.31531 0.058137 0.065328002
0.31445 0.057461999 0.066912003
0.31630999 0.054481 0.067546003
0.31771001 0.055034999 0.067129999
0.29697001 0.10406 0.052200001
0.32188001 0.061528999 0.063426003
0.32205001 0.061375 0.064294003
0.32301 0.060986001 0.064346999
0.32368001 0.060899999 0.064208001
0.32504001 0.058515001 0.064897001
0.29980999 0.1044 0.050760001
0.32168999 0.064331003 0.062641002
0.30265 0.10434 0.050522
0.32288 0.064898998 0.062252
0.32618001 0.061958998 0.063446999
0.32515001 0.061140999 0.063855
0.32414001 0.066246003 0.061691001
0.32413 0.065297 0.062125001
0.32392001 0.067284003 0.061990999
0.32765999 0.062638 0.063267
0.30754 0.099563003 0.052278999
0.32495999 0.067841999 0.060818002
0.32435 0.068397999 0.061179001
0.30588001 0.10271 0.050129
0.30557999 0.10149 0.050831001
0.32534999 0.068911999 0.060169
0.32918 0.063217998 0.062724002
0.32940999 0.06363 0.061802998
0.33083999 0.062889002 0.062991999
0.32545 0.070308 0.059985999
0.32622999 0.071122997 0.059471998
0.32694 0.069395997 0.059733
0.32991999 0.063483 0.062316999
0.32591999 0.071947001 0.059505001
0.32504001 0.072105996 0.059475001
0.33116999 0.064416997 0.062167998
0.32769001 0.070284002 0.059234999
0.32764 0.071350001 0.058899
0.33116999 0.064796001 0.061225999
0.33050001 0.069582999 0.059034999
0.32912001 0.070510998 0.058974002
0.31521001 0.097190998 0.052097
0.31512001 0.097042002 0.051104002
0.32732001 0.075195 0.058655001
0.33261999 0.065247998 0.060807001
0.33432001 0.064469002 0.061190002
0.33322001 0.063652001 0.061622001
0.33361 0.065935001 0.060561001
0.31761 0.097746 0.051559001
0.33541 0.066358 0.060183
0.33559 0.064767003 0.060612001
0.31858999 0.097197004 0.051511001
0.33701 0.065058 0.060656
0.33002001 0.078865997 0.056756999
0.33660001 0.066601001 0.060058001
0.33642 0.067152001 0.059261002
0.33776 0.067252003 0.059234001
0.33882001 0.065899 0.059912998
0.33842999 0.066753 0.059907999
0.33893001 0.066955999 0.059140999
0.33952999 0.066059001 0.059916999
0.32442999 0.094759002 0.051036999
0.32534 0.094954997 0.051855002
0.3308 0.082386002 0.055488002
0.33083999 0.083481997 0.054609001
0.331 0.084197 0.054854002
0.32765001 0.093221001 0.051697001
0.33046001 0.088749997 0.053383999
0.33033001 0.089760996 0.052436002
0.19153 0.0030489 0.10338
0.19095001 0.0039603999 0.10307
0.19318999 0.00023285999 0.10336
0.19268 0.0011976 0.10328
0.16565 0.056635998 0.086535998
0.19755 0.0019813001 0.10268
0.19599999 0.0017563 0.10288
0.19395 0.0087881004 0.1008
0.19848999 0.0016233 0.10266
0.19918001 0.0013238 0.10305
0.19544999 0.0097955996 0.1002
0.18021999 0.040309999 0.093546003
0.18065999 0.038407002 0.093344003
0.18248001 0.033652999 0.092811003
0.18522 0.030479999 0.095484003
0.19528 0.010776 0.099656001
0.19041 0.02131 0.098351002
0.19112 0.019351 0.098382004
0.19182999 0.020184999 0.10137
0.19181 0.019656001 0.10001
0.19272999 0.018688999 0.10193
0.20336001 0.0010311001 0.10254
0.16552 0.068687998 0.082378
0.20403001 0.00134 0.10326
0.16914 0.071153 0.080742002
0.21219 0.0092275999 0.097990997
0.21371999 0.0085201999 0.097070999
0.21375 0.0085485997 0.097837999
0.17941 0.072200999 0.078849003
0.19807 0.042853002 0.087495998
0.19892 0.041053999 0.087857999
0.20124 0.036471002 0.088794999
0.20065001 0.037082002 0.088799
0.20344 0.033103 0.090328
0.19758999 0.043786999 0.087091997
0.21302 0.015453 0.095467001
0.1892 0.059838999 0.082331002
0.19632 0.049334001 0.085036002
0.19317 0.059211001 0.081395999
0.19935 0.050616 0.084192999
0.19564 0.059937 0.081234999
0.19524001 0.062235001 0.080250002
0.21235999 0.029498 0.091084003
0.19529 0.062674001 0.080757
0.19796 0.064134002 0.079749003
0.20818 0.046921 0.084165998
0.19826999 0.067598 0.078341
0.21119 0.044234999 0.085309997
0.20220999 0.062508002 0.079447001
0.19448 0.076347999 0.074658997
0.19752 0.075010002 0.07525
0.20328 0.073019996 0.075915001
0.23225001 0.033530001 0.085891001
0.23955999 0.024185 0.089152001
0.23573001 0.034171999 0.085123003
0.2106 0.082168996 0.071356997
0.23827 0.034949999 0.084844999
0.21278 0.082728997 0.070274003
0.22007 0.075737 0.072396003
0.22175001 0.076350003 0.072040997
0.24962001 0.034274001 0.083020002
0.22293 0.083639003 0.068355002
0.25446001 0.034805998 0.08281
0.25547001 0.037710998 0.080977
0.25604999 0.036837 0.081759997
0.25551999 0.038357001 0.081
0.25645 0.038887002 0.081220999
0.26093999 0.035163999 0.082125999
0.2344 0.082099997 0.068103001
0.2335 0.083486997 0.068104997
0.23825 0.081464998 0.067754999
0.26429 0.035588 0.081616998
0.23974 0.082050003 0.066693999
0.23935001 0.082084998 0.066922002
0.23818 0.088799998 0.065429002
0.26655 0.035822 0.081206001
0.23778 0.090155996 0.064894997
0.23968001 0.086032003 0.065539002
0.23765001 0.090754002 0.064262003
0.26909 0.035833001 0.080539003
0.23841999 0.091626003 0.064195
0.23935001 0.090942003 0.064211003
0.27638 0.037648998 0.079288997
0.28009999 0.038685001 0.078334004
0.2529 0.089056998 0.063170999
0.28746 0.040027998 0.076908
0.26348001 0.089569002 0.061565001
0.29155001 0.042078 0.075800002
0.29179001 0.042112 0.075493999
0.26536 0.089498997 0.061390001
0.28977001 0.050979 0.072258003
0.26982999 0.089112997 0.060793001
0.27078 0.089125 0.061005998
0.29631999 0.044787001 0.073969997
0.29574999 0.048268002 0.072550997
0.27463999 0.090470001 0.058982
0.29538 0.055573002 0.070320003
0.30122 0.046902001 0.071819998
0.30250999 0.047426 0.071483999
0.30164999 0.052871 0.069959
0.30118001 0.052448999 0.070845999
0.30153999 0.054683998 0.068761997
0.30085999 0.056396 0.068842001
0.30250001 0.053518001 0.069766998
0.30917001 0.049998999 0.069802001
0.31014001 0.050530002 0.069554001
0.28454 0.097696997 0.055737
0.31406 0.053176001 0.068267003
0.31331 0.059351999 0.065833002
0.31231999 0.058699999 0.066258997
0.31327999 0.057565998 0.066546001
0.29203001 0.10155 0.053656999
0.31470001 0.059769999 0.065075003
0.31591001 0.058354001 0.066492997
0.29363999 0.10239 0.053022999
0.31650001 0.060291 0.065070003
0.31691 0.059326001 0.06577
0.29438001 0.10291 0.052579999
0.29538 0.10338 0.052287001
0.29578999 0.10342 0.051559001
0.32032999 0.061735 0.064346001
0.31933999 0.062858 0.063432001
0.31817001 0.062643997 0.064117
0.32075 0.063605003 0.062964998
0.32095999 0.062378 0.063189
0.32424 0.057477001 0.065817997
0.32506999 0.059448 0.064815998
0.32583001 0.060095001 0.064626999
0.30133 0.10482 0.050314002
0.30129001 0.10407 0.051049002
0.30651 0.10026 0.051835999
0.30520999 0.10257 0.050847001
0.30449 0.10354 0.050241001
0.32960001 0.061882999 0.063124999
0.3247 0.070511997 0.060141999
0.32422 0.071532004 0.060265999
0.32548001 0.070886001 0.059795
0.32473999 0.073128998 0.059687
0.32596999 0.074165002 0.059245002
0.32166001 0.096391998 0.051367
0.32649001 0.094532996 0.051723
0.33081999 0.086796001 0.053498
0.32980999 0.091008998 0.052299999
0.19245 0.0077442001 0.10103
0.16312 0.062602997 0.084987
0.16357 0.065442003 0.083884999
0.18827 0.024009001 0.095554002
0.19396 0.013531 0.099260002
0.17888001 0.041386999 0.091505997
0.18824001 0.024917999 0.097274996
0.18904001 0.023766 0.097010002
0.18917 0.024037 0.098373003
0.19018 0.022225 0.099198997
0.19069 0.021028001 0.099577002
0.19311 0.015911 0.099601001
0.16819 0.070776999 0.081289999
0.17422999 0.070595004 0.080454998
0.19931 0.039958 0.088408001
0.19993 0.038706001 0.088411003
0.20299 0.033519998 0.089689001
0.21438 0.013038 0.096538998
0.18291999 0.070788004 0.079020001
0.18553001 0.066060998 0.080499999
0.18503 0.066216998 0.080002002
0.20224001 0.035681002 0.089805998
0.20197 0.035989001 0.089431003
0.21461999 0.016362 0.095073
0.19588 0.061595999 0.081413999
0.19391 0.067057997 0.080242001
0.19367 0.068356 0.079824999
0.21478 0.02902 0.090521999
0.20344999 0.052142002 0.083973996
0.19592001 0.066243999 0.079219997
0.19177 0.075751998 0.076261997
0.19104999 0.074948996 0.076884001
0.19566999 0.068533003 0.078705996
0.2131 0.041974001 0.086444996
0.19941001 0.06752 0.078685999
0.21436 0.040867001 0.085888997
0.20216 0.061829999 0.080242001
0.19588 0.077105001 0.075228997
0.21568 0.039873 0.086319
0.22178 0.037409998 0.086525999
0.22545999 0.035877001 0.086831003
0.23553 0.020448999 0.090334997
0.23593999 0.021697 0.090499997
0.20745 0.074826002 0.074432999
0.20738 0.079990998 0.072668999
0.23488 0.035007998 0.085726
0.21904001 0.075920001 0.072828002
0.24239001 0.036309 0.084330998
0.22269 0.077114001 0.071817003
0.24638 0.037090998 0.083439
0.24901 0.038132999 0.082781002
0.22447 0.085937001 0.068416998
0.22799 0.086438 0.066434003
0.22869 0.086493 0.067561001
0.25691 0.037726 0.082102001
0.23198 0.085892998 0.067156002
0.23343 0.084703997 0.067792997
0.23521 0.081234999 0.068644002
0.23705 0.081183001 0.068690002
0.26817 0.035852 0.080658004
0.24065 0.085175 0.066519
0.26964 0.036191002 0.080761001
0.24174 0.08715 0.065958999
0.27373001 0.037331998 0.079805002
0.27541 0.037609 0.079731002
0.27480999 0.037535001 0.079630002
0.24855 0.087210998 0.064113997
0.27796 0.038059 0.078832999
0.25173 0.088660002 0.063823
0.28130001 0.038297001 0.077725999
0.28174999 0.039384998 0.078086004
0.28388 0.038922001 0.077873997
0.28472999 0.039480001 0.077463001
0.26232001 0.089377001 0.061919998
0.29007 0.04188 0.076217003
0.28915 0.046450999 0.073858
0.28854001 0.047600999 0.073950998
0.29073 0.045779001 0.074244998
0.29249001 0.046043001 0.074114002
