# .PCD v0.7 - Point Cloud Data file format
VERSION 0.7
FIELDS x y z
SIZE 4 4 4
TYPE F F F
COUNT 1 1 1
WIDTH 1563
HEIGHT 1
VIEWPOINT 0 0 0 1 0 0 0
POINTS 1563
DATA ascii
0.049229998 0.23912001 -0.00082156999
0.12278 0.24167 -0.039880998
0.12284 0.24221 -0.040637001
0.12462 0.24203999 -0.039949
0.050664 0.24068999 -0.00040200999
0.0513 0.24197 -0.00070628
0.053059001 0.24435 -0.0017271
0.054187998 0.24563 -0.0021325001
0.054963 0.24684 -0.0022364
0.056279 0.2482 -0.0031939
0.060026001 0.25112 -0.0041189999
0.059296999 0.25048 -0.0036313001
0.097269997 0.23683 -0.0015579
0.097869001 0.23656 -0.0020426
0.097172998 0.23815 -0.0017399
0.13466001 0.19164 0.074795
0.13433 0.19283 0.074097998
0.13394 0.19187 0.075161003
0.14158 0.19041 0.070739999
0.14045 0.19084001 0.070914999
0.14442 0.19009 0.068069004
0.14515001 0.1901 0.067206003
0.14421999 0.19168 0.067457996
0.063942999 0.19897 -0.034449998
0.063975997 0.20017999 -0.034446001
0.069863997 0.19636001 -0.037636999
0.080324002 0.24034999 -0.035794999
0.045006 0.22074001 -0.0013758
0.045891002 0.22113 -0.00022543001
0.13215999 0.25277001 0.0016873
0.13266 0.25285 0.0028168
0.14365999 0.1648 0.070841998
0.14472 0.1815 0.070782997
0.10967 0.26018 -0.036293998
0.11164 0.26056001 -0.037629001
0.1223 0.19965 0.076615997
0.12297 0.19909 0.076544002
0.12266 0.20036 0.076241001
0.10963 0.26029 -0.034630999
0.065764003 0.22086 -0.036920998
0.061393999 0.18953 -0.032506999
0.061328001 0.19114999 -0.033213999
0.062100999 0.19079 -0.033727001
0.13429999 0.26811999 -0.055144999
0.13433 0.26864001 -0.054205
0.13504 0.26879001 -0.055052001
0.12808 0.24798 0.0055188001
0.12802 0.24779999 0.0066863
0.12631001 0.24688999 0.0063429
0.14093 0.18493 0.073077999
0.14081 0.18653999 0.072812997
0.14001 0.18501 0.073629998
0.10968 0.24231 -0.00018974001
0.10875 0.24269 0.00026194999
0.10837 0.24161001 -0.0016731001
0.12496 0.25024 -0.031879
0.1267 0.25308999 -0.032455001
0.12576 0.25325 -0.031941
0.12532 0.25174001 -0.031851001
0.076233 0.24524 -0.033643998
0.077506997 0.24482 -0.033961002
0.077330999 0.24368 -0.033422999
0.15631001 0.26117 -0.049681
0.1564 0.26219001 -0.049068
0.078308001 0.13153 0.013212
0.15387 0.18162 0.037918001
0.15346 0.18153 0.036954001
0.15388 0.18256 0.037374001
0.077483997 0.16028 0.068080001
0.076416001 0.16063 0.066950001
0.076210998 0.15922 0.067325003
0.10736 0.24255 -0.010503
0.088849001 0.21765 0.020947
0.087173998 0.21738 0.021119
0.087134004 0.21676999 0.022056
0.12575001 0.26949999 0.0057938001
0.12512 0.26952001 0.0044608
0.12377 0.26868999 0.0054044998
0.11467 0.22187001 0.030392
0.067212 0.20508 -0.034786999
0.10741 0.22237 0.042670999
0.11854 0.22267 0.040993001
0.11398 0.22229999 0.044851001
0.11265 0.22258 0.045258999
0.12948 0.21971001 0.041613001
0.056564 0.14822 -0.0042707999
0.057663001 0.14872 -0.0025617001
0.057519998 0.14793 -0.0046379999
0.12639 0.22057 0.046080001
0.10619 0.22047 0.049550999
0.070846997 0.19649 -0.038104001
0.074547999 0.22999001 -0.038860001
0.10649 0.22036 0.050367001
0.10488 0.21974 0.050528999
0.098470002 0.22063001 0.017221
0.13265 0.26574999 -0.044454999
0.13291 0.26616001 -0.044847999
0.13155 0.26552999 -0.044333
0.1127 0.2445 -0.02581
0.11097 0.24287 -0.025735
0.13776 0.15351 0.089799002
0.13812999 0.15465 0.088670999
0.065371998 0.18904001 -0.035478
0.065576002 0.19038001 -0.035974
0.065962002 0.18897 -0.036157001
0.099993996 0.21752 0.049872
0.095133997 0.25242001 -0.0036132999
0.093925998 0.25242001 -0.0036811
0.095062003 0.25170001 -0.0033575001
0.058219001 0.24664 -0.02324
0.058738001 0.24795 -0.022949999
0.059257999 0.24763 -0.023637
0.15191001 0.25343001 -0.050108001
0.15186 0.25461 -0.051268999
0.15265 0.25475001 -0.050593998
0.13251001 0.21833 0.043758001
0.13368 0.21799999 0.043483
0.11459 0.24360999 -0.027783001
0.11406 0.24367 -0.027153
0.11498 0.24361999 -0.028297
0.13009 0.12517001 0.050562002
0.13018 0.12463 0.051422998
0.12737 0.12388 0.049649
0.131 0.25145999 0.0018807
0.13045999 0.25196001 0.0013214001
0.073697999 0.16834 -0.029208999
0.074410997 0.16821 -0.029773001
0.055766001 0.20777 -0.0077041001
0.055753 0.20784999 -0.0089074997
0.055061001 0.20637999 -0.0087999003
0.055153999 0.2066 -0.0077828998
0.12882 0.12621 0.070156001
0.12603 0.12604 0.071032003
0.12763 0.12569 0.069137
0.056221001 0.20902 -0.0077395001
0.13665999 0.25670999 0.0029847999
0.13699999 0.25676 0.0037990001
0.13598 0.25498 0.0043313
0.1499 0.25200999 -0.051380001
0.10599 0.14906999 -0.0067699002
0.10617 0.15018 -0.0069182999
0.099413 0.23903 -0.031119
0.1003 0.23890001 -0.030585
0.09973 0.23728999 -0.030266
0.12487 0.19840001 -0.0063987002
0.12599 0.19738001 -0.0057317
0.1279 0.25538999 -0.0035931999
0.099532999 0.16178 -0.019987
0.10116 0.16316 -0.021207999
0.10043 0.16159 -0.01942
0.046085998 0.22122 0.00066323997
0.045503002 0.2229 0.00087977003
0.12694 0.25068 -0.0015725
0.12651999 0.24966 -0.00019598
0.12594999 0.24958999 -0.00080028002
0.045155998 0.2243 0.0015608
0.045191001 0.22583 0.00166
0.045680001 0.22696 0.0016619
0.045951001 0.22868 0.0016409
0.046429999 0.22995 0.0015608
0.046957999 0.23105 0.0012726
0.12408 0.2606 -0.0048941998
0.12281 0.25937 -0.0057878001
0.12251 0.26102999 -0.0053189001
0.073720001 0.14843 0.061363
0.073311999 0.14999001 0.061414
0.073190004 0.15023001 0.060601
0.10128 0.23767 -0.0046478999
0.10189 0.23944999 -0.0040996
0.10029 0.23807 -0.0039265999
0.14703 0.17825 0.067915
0.14835 0.17813 0.067184001
0.14723 0.17982 0.067565002
0.073224001 0.14889 0.060157999
0.077514 0.15341 0.065646999
0.076539002 0.15333 0.064938001
0.074196003 0.16139001 0.065086998
0.074992001 0.1611 0.065660998
0.075787999 0.16354001 0.065829001
0.095817998 0.20791 0.058892999
0.096202999 0.20926 0.058614999
0.095748 0.20897999 0.057757001
0.094199002 0.20682999 0.058318
0.095259003 0.20677 0.059094999
0.095068999 0.20811 0.058201998
0.073971003 0.14972 0.062252
0.073527999 0.15132999 0.061393
0.074389003 0.15216 0.062530003
0.073675998 0.15249 0.061687998
0.11799 0.24157 -0.038842998
0.11883 0.24158999 -0.039030999
0.118 0.24138001 -0.038394
0.079154 0.19758999 0.041499998
0.079484999 0.19825 0.042535
0.079507999 0.19902 0.041572001
0.056894999 0.13749 0.02251
0.057 0.13884 0.022384999
0.057314999 0.1374 0.021217
0.051447999 0.23997 2.0047e-05
0.052722 0.24107 0.00024383
0.054554 0.24547 -0.0013692999
0.055656999 0.24668001 -0.001783
0.056979001 0.24795 -0.0024401001
0.058318 0.249 -0.0028393001
0.14083999 0.24748001 -0.046390999
0.14155 0.24711999 -0.047201999
0.14174999 0.24843 -0.046009
0.097235002 0.23523 -0.0010089
0.097805001 0.23478 -0.0018659
0.098116003 0.23994 -0.0022533
0.097378999 0.23987 -0.0018917
0.12698001 0.24297 -0.047451001
0.14040001 0.19245 0.070583999
0.14527 0.18848 0.068023004
0.064953998 0.20421 -0.033989001
0.065619998 0.20532 -0.03376
0.066030003 0.2069 -0.033013001
0.091091 0.13293999 0.051840998
0.090809003 0.1331 0.050999999
0.092092 0.13269 0.050678998
0.076058 0.13564999 0.055553
0.076801002 0.13571 0.056538001
0.076984003 0.13745999 0.056249
0.15047 0.25433999 -0.047322001
0.15064999 0.25587001 -0.046955001
0.14996 0.25580999 -0.046781
0.15742999 0.26480001 0.012112
0.15711001 0.26345 0.012041
0.15762 0.26412001 0.011316
0.061005998 0.18423 -0.031106999
0.061616998 0.18523 -0.03136
0.062100999 0.18365 -0.031846002
0.076321997 0.24651 -0.034221001
0.077432998 0.2465 -0.034368999
0.14480001 0.18569 0.069656998
0.10893 0.25986999 -0.033328
0.10675 0.25876999 -0.033151999
0.10699 0.25883999 -0.034899
0.13169999 0.19483 0.07519
0.13079 0.19362 0.075854003
0.14738999 0.14461 0.077661
0.14702 0.14487 0.078523003
0.14707001 0.14359 0.078691997
0.075971998 0.24371 -0.033528998
0.14753 0.18455 0.026625
0.14686 0.18489 0.025463
0.14836 0.18377 0.02592
0.14791 0.18375 0.024805
0.1157 0.24274001 -0.029454
0.11698 0.24383 -0.028984001
0.11613 0.2438 -0.028837999
0.14696001 0.25292999 0.015628001
0.1464 0.25273001 0.01452
0.1446 0.13399 0.070573002
0.14461 0.13381 0.071716003
0.14325 0.13213 0.070666
0.11898 0.15418001 0.081331998
0.11816 0.15497001 0.081502996
0.11832 0.15343 0.081230998
0.1182 0.24123 -0.037471
0.11964 0.2412 -0.037264999
0.11958 0.24142 -0.036153998
0.12662999 0.24986 -0.032816
0.12706999 0.25143 -0.032655999
0.12605999 0.25141999 -0.03241
0.15118 0.18946999 0.057847999
0.15109 0.18903001 0.058784999
0.15153 0.18816 0.058389999
0.084519997 0.19269 0.063529998
0.085162997 0.19262999 0.064212002
0.085366003 0.19374999 0.062339
0.12785999 0.24818 0.0043295999
0.12657 0.24726 0.0056114998
0.089071997 0.23165999 0.0049999999
0.087701 0.23082 0.0058093001
0.080063 0.14689 -0.016288999
0.079214998 0.14714999 -0.015534
0.080894001 0.14793 -0.015399
0.087398998 0.2317 0.0051368
0.086282998 0.23196 0.0055677001
0.084904999 0.23227 0.0060915998
0.127 0.26989001 0.0046367999
0.11328 0.22224 0.030487999
0.10923 0.22245 0.042330999
0.11706 0.22253001 0.041278999
0.12817 0.22019 0.041999999
0.12522 0.22105999 0.046271
0.10744 0.22131 0.049722999
0.068870999 0.19245 -0.038371
0.11389 0.16237999 -0.0087794
0.11469 0.16357 -0.0091987997
0.11435 0.16226999 -0.0079893004
0.050753001 0.19557001 -0.0064714998
0.050533 0.19425 -0.0052314
0.050905 0.19568001 -0.0054776999
0.10388 0.23625 -0.023836
0.10414 0.23748 -0.023619
0.11113 0.24055 -0.028046001
0.11239 0.24165 -0.027667999
0.11923 0.24126001 -0.035377
0.12082 0.24197 -0.034724999
0.1204 0.24199 -0.034005001
0.12146 0.24604 -0.031153999
0.12069 0.24431001 -0.031700999
0.12146 0.24493 -0.031597
0.11822 0.12735 0.0020365999
0.11858 0.12739 0.0030344999
0.11812 0.12898 0.0025915999
0.058915 0.24652 -0.023823
0.063863002 0.20689 -0.031270999
0.062928997 0.20695999 -0.030373
0.064365 0.20815 -0.030719999
0.071167 0.22674 -0.038908001
0.072183996 0.22645 -0.039255999
0.072125003 0.22503 -0.039336
0.14269 0.25198001 0.014084
0.14283 0.25163999 0.01535
0.14119001 0.25102001 0.015123
0.098543003 0.21791001 0.048695002
0.13125999 0.21874 0.044383001
0.074205004 0.16933 -0.030346001
0.12612 0.1811 -0.0091918996
0.12602 0.18262 -0.0087352004
0.054099999 0.20461001 -0.0081842002
0.054350998 0.20495 -0.0075380998
0.054915 0.20482001 -0.0084664999
0.082363002 0.24541 -0.033418
0.056219 0.20761999 -0.0068851998
0.055567998 0.20631 -0.0070834002
0.056612998 0.20896 -0.0069978
0.056869999 0.21028 -0.0068199998
0.056536 0.21022999 -0.0081241997
0.12796 0.24795 0.012198
0.12873 0.24811999 0.012992
0.12763999 0.24901 0.014068
0.13837001 0.26201999 0.0024969
0.13838001 0.26377001 0.0030665
0.13974001 0.26383999 0.0031727999
0.12488 0.24822 -0.00048918999
0.12576 0.24913 -0.00060152001
0.12434 0.24782 0.00022683
0.10708 0.15148 -0.0073183002
0.15571 0.17224 0.043138999
0.15546 0.17143001 0.043815002
0.15547 0.17093 0.042428002
0.090484001 0.2078 0.052638002
0.089850001 0.2077 0.052042998
0.089137003 0.20660999 0.05212
0.12485 0.19012 -0.0095662996
0.12507001 0.19124 -0.0090244999
0.12585001 0.19133 -0.0082558999
0.12530001 0.17824 -0.010004
0.10787 0.1714 -0.025389001
0.10702 0.17158 -0.025719
0.10851 0.17297 -0.025454
0.10245 0.16471 -0.02187
0.10346 0.16443001 -0.020482
0.046456002 0.22123 0.0012107
0.046048999 0.22253001 0.0018616
0.045770001 0.22423001 0.0021349001
0.045984 0.22578999 0.0023256
0.046209998 0.22688 0.0024180999
0.046776 0.22837 0.0026125
0.046994001 0.22965001 0.0024842999
0.047566 0.23071 0.0023856999
0.048563 0.2325 0.0019066
0.070598997 0.17622 0.059331
0.071084999 0.17767 0.058924999
0.070124 0.17637999 0.058382001
0.04882 0.23172 0.0023785001
0.048207 0.2308 0.0032043001
0.081859 0.14054 0.063141003
0.083722003 0.13912 0.063233003
0.083318003 0.14040001 0.063909002
0.077931002 0.18735 0.063295998
0.078188002 0.18697 0.064272001
0.078186996 0.18856999 0.063125998
0.094953999 0.20083 0.060736999
0.095613003 0.20068 0.061113998
0.095526002 0.20220999 0.060318999
0.073739 0.14693999 0.059404001
0.074060999 0.14677 0.060481001
0.077329002 0.15474001 0.065729998
0.077344999 0.15598001 0.066638999
0.076595001 0.15620001 0.066170998
0.074446 0.15965 0.065747
0.073825002 0.15993001 0.065036997
0.097790003 0.21032999 0.0579
0.096942 0.21041 0.057422001
0.073882997 0.14835 0.062309001
0.074189998 0.15113001 0.062119
0.14902 0.18277 0.025169
0.14923 0.18316001 0.024427
0.10933 0.14061999 0.078212999
0.10961 0.14198001 0.077858001
0.10884 0.14088 0.076980002
0.073941 0.17402001 0.063722998
0.072986998 0.17455 0.063413002
0.072466999 0.17290001 0.063267998
0.072288997 0.18337999 0.059009999
0.072966002 0.18440001 0.058989
0.072332002 0.18453 0.058215
0.054736 0.24406999 -9.6700998e-05
0.14217 0.13115001 0.069187
0.14371 0.13253 0.069174998
0.14183 0.13161001 0.070629999
0.055721 0.24556001 -0.00093936
0.056418002 0.24661 -0.0010928001
0.057344001 0.24809 -0.0017894
0.058821 0.24943 -0.0020339999
0.11676 0.24231 -0.030246999
0.11688 0.24352001 -0.029759999
0.098072998 0.23361 -0.0016757
0.098066002 0.23800001 -0.0019771999
0.14115 0.14306 0.087001003
0.14161 0.14447001 0.087030999
0.14048 0.14332999 0.087604001
0.14214 0.14564 0.087168001
0.14135 0.14606 0.087926
0.14109001 0.14459001 0.087886997
0.14483 0.19144 0.066613004
0.14157 0.17913 0.073553003
0.14098001 0.17948 0.074028999
0.14084999 0.17771 0.074404001
0.14358 0.17498 0.072288997
0.14285 0.17456999 0.073013999
0.14267001 0.17339 0.073105998
0.14348 0.17319 0.072136
0.12333 0.17885 0.082304999
0.1225 0.17863999 0.082209997
0.12291 0.17772999 0.082539998
0.11135 0.24189 -0.0032854001
0.084097996 0.13046999 0.010137
0.082396999 0.13061 0.010327
0.083490998 0.13052 0.0094239004
0.14793999 0.1401 0.073954001
0.14816 0.14139 0.073743001
0.14826 0.14237 0.075563997
0.14629 0.13631 0.071797997
0.14605001 0.13657001 0.073797002
0.14551 0.13514 0.072841004
0.054798 0.243 -0.022101
0.054903999 0.24419001 -0.021947
0.079015002 0.13161001 0.010963
0.079347998 0.13133 0.01178
0.077720001 0.13224 0.011265
0.1294 0.24789 0.0085741002
0.13125999 0.24877 0.0085832998
0.12947001 0.24765 0.0096608996
0.14166 0.1865 0.071843997
0.084004998 0.2325 0.0062858998
0.086503997 0.21641999 0.022012001
0.14652 0.14206 0.078795999
0.14633 0.14241 0.080038004
0.1468 0.14486 0.080173999
0.11054 0.14985 -0.0030106001
0.11012 0.15067001 -0.0034161001
0.11184 0.15083 -0.0036734999
0.14666 0.1376 0.07288
0.14665 0.13775 0.074169002
0.10422 0.23074999 -0.0095173996
0.14633 0.25321001 -0.046146002
0.14678 0.25468999 -0.045378
0.089786999 0.20651001 0.053142
0.090240002 0.19591001 0.063079
0.091573998 0.19712999 0.062327001
0.090173997 0.19592001 0.061682001
0.11075 0.14173999 0.080848001
0.11119 0.14308 0.080716997
0.11038 0.14202 0.079829
0.11172 0.14438 0.080769002
0.11142 0.14466 0.079565004
0.11067 0.14318 0.079855002
0.077235997 0.16914999 0.067690998
0.078105003 0.16874 0.069055997
0.077954002 0.17041001 0.068879001
0.071461998 0.17757 0.060031001
0.072162002 0.17869 0.059861999
0.14771999 0.14082 0.075047001
0.12214 0.19832 0.077060997
0.12309 0.19781999 0.077330001
0.12699001 0.27024999 0.0058235
0.12235 0.26730001 -0.00020301
0.11529 0.26449001 7.1666997e-05
0.13876 0.24692 -0.04544
0.14989001 0.27223 0.011369
0.078754999 0.25711 -0.014627
0.13638 0.26894 -0.049522001
0.089308001 0.25393 -0.0046378998
0.089397997 0.25395 -0.0038635
0.088021003 0.21549 0.026097
0.11216 0.22215 0.030797999
0.11057 0.22229999 0.030820001
0.12109 0.22122 0.034086
0.079489 0.24291 -0.033776
0.10745 0.15324999 -0.0073469998
0.10825 0.15257999 -0.0064869002
0.11062 0.22254001 0.041912001
0.11596 0.22255 0.041237999
0.1154 0.22231001 0.045060001
0.12685999 0.22091 0.042309999
0.066762999 0.17427 -0.029932
0.12373 0.22109 0.046544999
0.10925 0.22130001 0.049740002
0.10896 0.22189 0.048721001
0.10412 0.23306 -0.011241
0.10395 0.23394001 -0.010956
0.12961 0.25516999 -0.0021665001
0.12991001 0.25479999 -0.0013475
0.12952 0.25373 -0.0013356
0.051357999 0.19293 -0.0046424
0.050907001 0.19456001 -0.0043255999
0.13330001 0.25255001 0.0032945999
0.13313 0.25150999 0.0044245999
0.051194999 0.19577 -0.0042539998
0.051506002 0.19701999 -0.0041791
0.051415 0.19729 -0.0053174002
0.057379 0.1389 0.021098001
0.10583 0.23942 -0.030277999
0.10397 0.23903 -0.029394001
0.11044 0.24296001 -0.025094001
0.11089 0.24208 -0.025629999
0.13302 0.26822001 -0.053196002
0.13423 0.26916999 -0.052974999
0.050241001 0.19310001 -0.0056497999
0.050813001 0.19157 -0.0046970001
0.052196 0.19971 -0.0042976001
0.05243 0.2013 -0.0045167999
0.051791001 0.1998 -0.0054719001
0.15194 0.25786 0.011134
0.15267999 0.25788999 0.011821
0.15180001 0.25645 0.012192
0.084784999 0.2448 -0.033725001
0.083852001 0.24518 -0.03359
0.084724002 0.24643999 -0.034035001
0.064634003 0.16353001 0.0021482999
0.065796003 0.16174001 0.0019382
0.065211996 0.1619 0.0030853001
0.083919004 0.24664 -0.033798002
0.05635 0.20739999 -0.0060147
0.055886999 0.20632 -0.0056169
0.057002999 0.20908 -0.005963
0.057517 0.21001001 -0.0060471999
0.057863999 0.21129 -0.0061865002
0.057363998 0.21185 -0.0067518
0.13601001 0.24555001 -0.044615999
0.13734999 0.24618 -0.044413999
0.13626 0.24657001 -0.043492001
0.088904001 0.19479001 0.062197
0.088839002 0.19171 0.066501997
0.089608997 0.19340999 0.066683002
0.089152001 0.19351999 0.065714002
0.10236 0.18712001 -0.033514999
0.10227 0.18875 -0.033185001
0.10363 0.18877999 -0.032747999
0.071145996 0.14631 0.053075999
0.071804002 0.14622 0.053787
0.070459999 0.14794999 0.053415999
0.10805 0.17310999 -0.025998
0.10882 0.17426001 -0.0265
0.092073999 0.15817 -0.019285999
0.092940003 0.15699001 -0.01921
0.091597997 0.15719999 -0.018641001
0.046487998 0.22251999 0.0026968999
0.046516001 0.21974 7.1394999e-05
0.047171 0.21988 0.0012302001
0.046588 0.22386999 0.0030716001
0.047017001 0.22529 0.0030338001
0.047208998 0.22649001 0.0029855
0.047320001 0.22824 0.0034689
0.047697 0.22976001 0.0030711
0.086443998 0.18831 0.069706
0.087706998 0.18938001 0.069306999
0.086893 0.18985 0.068557002
0.049357999 0.23039 0.0034318001
0.049315002 0.23149 0.0028051999
0.085938998 0.18851 0.069098003
0.088798001 0.19050001 0.068681002
0.088471003 0.19043 0.068143003
0.082364999 0.14084999 0.063818
0.081687003 0.14211001 0.064687997
0.15497001 0.26008001 0.010801
0.15543 0.26075 0.010945
0.094328001 0.19936 0.060731001
0.094724 0.19937 0.061726
0.096819997 0.20195 0.061969999
0.096306004 0.20288999 0.061131999
0.096078001 0.20207 0.061223
0.093230002 0.20867001 0.055849999
0.094054997 0.20988999 0.055326
0.093583003 0.20979001 0.054675002
0.091707997 0.20723 0.055422001
0.092124999 0.20728999 0.055978999
0.092524998 0.20852 0.055071
0.074357003 0.15820999 0.065500997
0.073890999 0.1584 0.065187
0.098679997 0.21166 0.057491999
0.097852997 0.21183001 0.057264999
0.074236996 0.14695001 0.061461002
0.14757 0.13925 0.073025003
0.14767 0.13899 0.072383001
0.14326 0.13267 0.071990997
0.14612 0.13621999 0.070412003
0.14707001 0.13785 0.071516998
0.12276 0.15346 0.088156998
0.12357 0.15288 0.088822
0.14238 0.17206 0.072756998
0.14153001 0.17188001 0.073665999
0.10613 0.2413 -0.0097832996
0.10644 0.24284001 -0.011207
0.12887999 0.25633001 0.0089483
0.12965 0.25782001 0.0082021998
0.12817 0.25628999 0.0082454002
0.15599 0.26017001 -0.049405999
0.15566 0.26131999 -0.050404001
0.057158001 0.24636 -0.00060241
0.055312 0.24344 2.1656e-05
0.1311 0.12871 0.076874003
0.12966999 0.12797999 0.076256
0.13194001 0.12847 0.076334998
0.14688 0.24871001 -0.049729001
0.14808001 0.24976 -0.049224
0.14742 0.25014001 -0.048122
0.097062998 0.23384 -0.00082016998
0.12636 0.15555 0.088537998
0.12675001 0.15488 0.090043999
0.14148 0.18092 0.073531002
0.14066 0.18084 0.074106999
0.063639 0.13448 0.017428
0.063579001 0.13458 0.016641
0.064833999 0.13431001 0.016163001
0.14161 0.17741001 0.073784001
0.14369 0.17606001 0.071998999
0.14328 0.17636 0.072892003
0.12809999 0.19989 -0.0010365
0.12899999 0.19892 -0.0015799
0.12819 0.19869 -0.0023767001
0.1049 0.23151 -0.010595
0.081450999 0.23712 -0.037471
0.082222998 0.23709001 -0.037296999
0.081952997 0.23587 -0.037895001
0.14486 0.18239 0.0036877999
0.14537001 0.18141 0.0029755
0.14471 0.18199 0.0021275
0.14653 0.14086001 0.078570999
0.146 0.14066 0.079502001
0.14661001 0.14337 0.080049001
0.14478999 0.19317 0.065621004
0.14429 0.19453999 0.065137997
0.14382 0.19457 0.066365004
0.14377999 0.19295999 0.066749997
0.14191 0.18328001 0.072814003
0.14150999 0.18501 0.072837003
0.14026999 0.17223001 0.074936002
0.14094 0.17208 0.074189998
0.14038 0.1735 0.074674003
0.14108001 0.18399 0.073299997
0.14237 0.16628 0.072458997
0.14191 0.16633999 0.073091999
0.14143001 0.16519 0.072857998
0.13716 0.12735 0.062424999
0.13564999 0.12627999 0.062160999
0.13538 0.12605 0.060695998
0.12367 0.19743 -0.0086263996
0.12322 0.19768 -0.0093916999
0.12396 0.19873001 -0.0081655001
0.14466999 0.13338999 0.042298
0.14621 0.13384999 0.04135
0.14559001 0.13415 0.042378999
0.066455998 0.14030001 -0.0093123997
0.090272002 0.19445001 0.066431001
0.091095001 0.19543 0.065903001
0.090372004 0.19447 0.065301999
0.092290998 0.19711 0.065646
0.093396001 0.19802999 0.064549997
0.091931 0.19708 0.064548001
0.1125 0.14597 0.080412
0.11179 0.14591999 0.079797998
0.056079 0.14972 -0.0022135
0.055477001 0.14826 -0.0040750001
0.14056 0.24925999 -0.044537
0.13985001 0.24812999 -0.045203999
0.097136997 0.19332001 0.073951997
0.096317001 0.19156 0.073732004
0.097491004 0.19175 0.074940003
0.113 0.25380999 -0.026787
0.12086 0.26718 1.3835e-05
0.089546002 0.21630999 0.026287001
0.092759997 0.21778999 0.02617
0.091622002 0.21665999 0.026353
0.072728001 0.25685 -0.011657
0.091886997 0.25374001 -0.0062719001
0.070432998 0.18249001 -0.037012
0.076527998 0.20898999 -0.036189999
0.1408 0.2703 -0.051511999
0.1407 0.27015999 -0.050641999
0.099646002 0.22205999 0.014037
0.099705003 0.22125 0.015057
0.094594002 0.21825001 0.026763
0.12241 0.2211 0.033750001
0.11172 0.22265001 0.041993
0.11476 0.22237 0.041469
0.11827 0.22227 0.044597
0.11669 0.22223 0.044801999
0.12557 0.22081999 0.042842999
0.12740999 0.18937001 -0.0059759002
0.12257 0.22138 0.047099002
0.11032 0.22167 0.048742
0.1107 0.22150999 0.049718
0.13629 0.21594 0.044124
0.13496999 0.21696 0.043175001
0.13533001 0.21665999 0.044663999
0.072667003 0.16851 -0.028849
0.073184997 0.16992 -0.029877
0.10798 0.22054 0.050269999
0.11067 0.22126999 0.050432999
0.10943 0.2212 0.050742999
0.050861999 0.19268 -0.0036527
0.11777 0.22149 0.049888
0.11762 0.22171 0.048953999
0.11675 0.22171 0.050253998
0.051318999 0.19420999 -0.0033714999
0.051701002 0.19553 -0.0035514
0.051941998 0.19682001 -0.0035870001
0.051904 0.19841 -0.0030233001
0.051589999 0.19856 -0.0043656002
0.052308999 0.19983999 -0.0033023001
0.052898001 0.20122001 -0.0032333001
0.053615998 0.20215 -0.0034405
0.053056002 0.2024 -0.0045325998
0.15106 0.25512001 -0.051831
0.061911002 0.16404 0.016209999
0.061521001 0.16395999 0.015448
0.061705999 0.16259 0.016218999
0.13076 0.24613 -0.038686
0.13149001 0.24758001 -0.038019001
0.056405999 0.20728 -0.0048580999
0.055684 0.20612 -0.0045042001
0.057356 0.20906 -0.0052344999
0.057891998 0.21007 -0.0053996998
0.058389999 0.21132 -0.0053869002
0.13044 0.24276 -0.046548001
0.13257 0.24273001 -0.046418
0.13222 0.24278 -0.045095999
0.05748 0.21274 -0.0058447998
0.090819001 0.19594 0.065016001
0.1098 0.13899 0.079774998
0.11033 0.13886 0.080955997
0.11012 0.14044 0.079720996
0.093289003 0.19837999 0.064025998
0.10838 0.15132999 -0.0048417002
0.10929 0.1523 -0.0048862998
0.10914 0.15095 -0.0038745999
0.1104 0.14041001 0.080812998
0.047152001 0.22239999 0.0032995001
0.046634998 0.22118001 0.0020381
0.15444 0.25737 -0.050262
0.15478 0.25762999 -0.049183998
0.1541 0.25617999 -0.050039001
0.046912 0.2235 0.0035953
0.101 0.23853999 -0.029432001
0.10119 0.23712 -0.028929999
0.10028 0.23711 -0.029379001
0.047724001 0.22529 0.0038037
0.047839001 0.22656 0.0039557
0.047931999 0.22787 0.0041478002
0.11538 0.15218 0.080757998
0.11453 0.15178999 0.080802001
0.11507 0.15074 0.080945998
0.073252998 0.18851 0.058274001
0.074293002 0.18851 0.058630001
0.073822998 0.18971001 0.058161002
0.055805001 0.13609 0.037000999
0.055555999 0.13722 0.038182002
0.055075999 0.13729 0.037014998
0.090790004 0.20913 0.051387999
0.090325996 0.20900001 0.050579
0.089538999 0.20804 0.051150002
0.085653998 0.18682 0.070179999
0.084950998 0.18717 0.070029996
0.070565 0.14796001 0.054607999
0.070762001 0.14748999 0.055640001
0.070156999 0.14952999 0.055224001
0.076843999 0.18743999 0.062587999
0.077519998 0.18911999 0.062582999
0.077036999 0.18885 0.061634999
0.093298003 0.19798 0.062486999
0.093097001 0.19802 0.061349001
0.073528998 0.17862 0.062320001
0.074110001 0.17844 0.063360997
0.073605999 0.17991 0.062143002
0.074607 0.15647 0.065181002
0.074033998 0.15708999 0.064539999
0.099950001 0.21262001 0.056834999
0.099023998 0.21303 0.056297999
0.075622998 0.14369 0.059117999
0.075901002 0.14353 0.060399
0.074360996 0.14528 0.059882998
0.076847002 0.14198001 0.058141001
0.077005997 0.14179 0.059191
0.075116999 0.14506 0.060766
0.078137003 0.14004 0.056839
0.078911997 0.13966 0.057611
0.078511998 0.13851 0.057622001
0.078008004 0.13874 0.056864999
0.077449001 0.13693 0.056823
0.078396998 0.13727 0.057813998
0.10456 0.23874 -0.011694
0.10454 0.2386 -0.010613
0.10732 0.24133 -0.035207
0.1103 0.24081001 -0.035108
0.10774 0.24107 -0.034076001
0.060501002 0.24880999 -0.0010068
0.061393 0.25023001 -0.0014484
0.060624 0.25025001 -0.00188
0.048365001 0.22893 0.0040849
0.1353 0.16187 0.076824002
0.14194 0.18223999 0.073137
0.14105999 0.18207 0.073904999
0.13842 0.12874 0.071085997
0.13778999 0.12938 0.072444998
0.13664 0.12795 0.069940001
0.10229 0.23280001 -0.0059302999
0.1021 0.23422 -0.0060958001
0.10126 0.23452 -0.0050761998
0.14472 0.13689999 0.076811001
0.14523999 0.13822 0.077486999
0.14445999 0.1367 0.077974997
0.14565 0.13954 0.078332998
0.1451 0.13921 0.078989998
0.14478 0.13831 0.078745998
0.14496 0.16446 0.069585003
0.14552 0.16438 0.068475999
0.14512999 0.16583 0.068778999
0.077909 0.13179 0.012121
0.076286003 0.13248 0.011934
0.057133999 0.20868 -0.018046999
0.057668 0.20987999 -0.017711001
0.057755999 0.20998999 -0.018635999
0.11801 0.1974 -0.017967001
0.1175 0.19760001 -0.018890001
0.11751 0.19853 -0.017733
0.13496 0.12611 0.064705998
0.13680001 0.12749 0.066869996
0.13476001 0.12627 0.066370003
0.13912 0.12915 0.070113003
0.13664 0.12782 0.068727002
0.13552999 0.24687999 -0.042573001
0.13617 0.2485 -0.041655
0.1407 0.1709 0.074211001
0.13998 0.17120001 0.074960999
0.14114 0.17365 0.074104004
0.13538 0.16316999 0.076779999
0.13467 0.16481 0.077486001
0.14242999 0.16775 0.072074004
0.14183 0.1682 0.07305
0.094952002 0.19913 0.064016998
0.096848004 0.20029999 0.063266002
0.095054001 0.19913 0.062674001
0.099679999 0.20412999 0.063060001
0.098945998 0.20584001 0.062669002
0.098990001 0.20426001 0.062408
0.084899001 0.16953 0.073416002
0.083949998 0.17025 0.072690003
0.083867997 0.16848999 0.072662003
0.096465997 0.2005 0.062178999
0.081182003 0.18824001 0.066161998
0.082134999 0.18783 0.066698
0.081919998 0.18909 0.065673999
0.10936 0.13765 0.079576001
0.10997 0.13753 0.080853
0.079754002 0.18386 0.067561999
0.080555998 0.18558 0.067180999
0.07976 0.18537 0.066627003
0.14418 0.13542999 0.076219998
0.14385 0.13548 0.077593997
0.061430998 0.17667 -0.025407
0.060407002 0.17758 -0.025238
0.061554 0.17763001 -0.026072999
0.070482001 0.15302999 -0.00065508002
0.070547998 0.15435 -0.00057698
0.071595997 0.1542 -0.0011282
0.063924 0.23746 -0.030747
0.064823002 0.23737 -0.031137999
0.10043 0.21078999 -0.028803
0.099904999 0.21059 -0.029727001
0.1003 0.21213999 -0.028565999
0.082370996 0.19365001 0.061423
0.082102999 0.19458 0.060720999
0.054997001 0.23721001 -0.023775
0.096054003 0.21847001 0.026957
0.10914 0.22206999 0.031073
0.1079 0.22191 0.031097
0.11329 0.22262 0.041769002
0.13027 0.21886 0.034418002
0.12904 0.21922 0.033959001
0.064640999 0.23885 -0.029536
0.065352 0.23829 -0.030526999
0.12459 0.22159 0.043212
0.12128 0.2217 0.047311001
0.064626001 0.19482 -0.036006998
0.11201 0.22169 0.049718
0.11166 0.22186001 0.048448
0.058757 0.2438 -0.023852
0.058878999 0.24514 -0.024156
0.059333999 0.24519999 -0.024933999
0.13281 0.21821 0.045006
0.13382 0.21758001 0.044348001
0.11631 0.22154 0.049203001
0.11472 0.22205999 0.049408998
0.11512 0.22143 0.050441999
0.052012999 0.19537 -0.0025249
0.052462 0.19676 -0.0026145999
0.052526999 0.19832 -0.0021309
0.052788001 0.19967 -0.0024896001
0.053495999 0.20089 -0.0026976999
0.053867999 0.20215 -0.0026195999
0.054668002 0.20364 -0.0027721999
0.055018999 0.20484 -0.0029730001
0.056031 0.2061 -0.0035373
0.057020999 0.20742001 -0.0038433
0.057691 0.20875999 -0.0040396
0.058185998 0.21025001 -0.0042257002
0.058835998 0.2114 -0.0044121002
0.051249001 0.22133 -0.02565
0.052379001 0.22052 -0.025699001
0.051279001 0.21989 -0.025319001
0.10652 0.20089 0.072306
0.10834 0.20213 0.072085001
0.10682 0.20247 0.070876002
0.083348997 0.18908 0.066419996
0.083788998 0.19009 0.065775
0.082795002 0.19050001 0.065172002
0.11225 0.14439 0.081818998
0.13772 0.24593 -0.045467
0.077988997 0.14876001 0.065332003
0.077958003 0.15023001 0.066028997
0.1035 0.20753001 0.064498998
0.10443 0.20885 0.064456999
0.10388 0.20893 0.063726999
0.075718001 0.18088 0.064947002
0.076343 0.18051 0.065816
0.076128997 0.18198 0.064792998
0.074961998 0.16551 0.064175002
0.074546002 0.16389 0.064254001
0.15432 0.25907999 0.014277
0.15445 0.25797999 0.01384
0.15524 0.25854 0.013721
0.072926998 0.163 0.062512003
0.073311999 0.16435 0.062282
0.072512001 0.16458 0.061988
0.13260999 0.2491 0.011083
0.13438 0.2494 0.011238
0.10463 0.23614 -0.013505
0.10443 0.23588 -0.012819
0.10412 0.23407 -0.011875
0.10059 0.23935001 -0.0036237999
0.10158 0.24067 -0.0025694
0.10072 0.2411 -0.0023554
0.10588 0.19594 0.074585997
0.11405 0.14708 0.083424002
0.11358 0.1471 0.082070999
0.11304 0.14571001 0.082535997
0.1004 0.23955999 -0.0031909
0.071261004 0.15473001 0.058763999
0.071108997 0.15486 0.057636999
0.070508003 0.15354 0.057794999
0.13984001 0.17815 0.075064003
0.072938003 0.14395 0.053771
0.072021998 0.14607 0.054529998
0.074405998 0.14224 0.052501999
0.073615 0.1425 0.051568002
0.084660001 0.18572 0.070513003
0.08405 0.18602 0.069835
0.074946001 0.18371999 0.062362999
0.075659998 0.18502 0.061889999
0.075099997 0.18524 0.061353002
0.088343002 0.18919 0.069957003
0.091568001 0.19732 0.063253999
0.074294999 0.17964999 0.063428
0.074799001 0.18138 0.063473001
0.073900998 0.18133 0.062521003
0.075943999 0.18678001 0.061935998
0.076673001 0.18783 0.06191
0.075783998 0.18807 0.061204001
0.14657 0.25042999 -0.047465
0.101 0.21444 0.056669999
0.10033 0.21404 0.055675
0.14317 0.18347999 0.071338996
0.14306 0.18446 0.071263
0.14252999 0.18481 0.071658999
0.10179 0.21517999 0.055144999
0.1428 0.13259 0.073462002
0.14255001 0.13275 0.074828997
0.14143001 0.13134 0.072958
0.14749999 0.25803 -0.045361001
0.14847 0.25768 -0.045722
0.14789 0.25933999 -0.045062002
0.13344 0.17614999 0.078708999
0.13364001 0.17499 0.078872003
0.10243 0.24047001 -0.0030769
0.11724 0.2413 -0.034359001
0.11883 0.24175 -0.034449
0.11845 0.24147999 -0.033121999
0.065569997 0.22781 -0.036881
0.062001999 0.22848 -0.034844
0.061889999 0.22688 -0.035191
0.11699 0.24231 -0.039684001
0.10638 0.24048001 -0.0082369996
0.10785 0.2414 -0.0077860001
0.10644 0.24025001 -0.0071701002
0.061101999 0.24884 4.6335001e-05
0.062229 0.24982999 -0.00072198
0.11415 0.24292 -0.0011536001
0.11572 0.24353001 0.00014567999
0.11231 0.24326999 -0.0062501002
0.063378997 0.24950001 5.0101e-05
0.13418999 0.16902 0.077707
0.13469 0.17046 0.077947997
0.13377 0.17069 0.078403004
0.14562 0.25156 -0.046294998
0.14345001 0.13409001 0.075718001
0.14291 0.13404 0.076696001
0.062510997 0.22965001 -0.034568001
0.061620999 0.22558001 -0.035053998
0.11629 0.13016 0.0060247998
0.11457 0.13031 0.0065661999
0.11605 0.13007 0.0052542002
0.14304 0.15331 0.066843003
0.14297 0.15218 0.065885998
0.14372 0.15361001 0.066004001
0.14222001 0.13282 0.076080002
0.057797998 0.18683 -0.027541
0.058789 0.18708 -0.028317999
0.058678001 0.18542001 -0.028193001
0.13898 0.18094 0.074865997
0.13929 0.18227001 0.074856997
0.13844 0.18243 0.075221002
0.15047 0.18201999 0.024827
0.15017 0.18224999 0.02406
0.15063 0.26067001 -0.046445001
0.14983 0.26071 -0.045864999
0.11179 0.14298999 0.081442997
0.146 0.18846001 0.067551002
0.11071 0.14032 0.081936002
0.11107 0.14187001 0.081335001
0.11035 0.13902999 0.082038999
0.11077 0.13762 0.081382997
0.1071 0.23920999 -0.025204999
0.10851 0.24043 -0.025218001
0.14071 0.17670999 0.074635997
0.064661004 0.20288 -0.034439001
0.14332999 0.19608 0.065471999
0.083563 0.19299001 0.062720001
0.083072998 0.19175 0.064170003
0.14102 0.13176 0.074564002
0.14442 0.15443 0.065486997
0.14404 0.15488 0.066206999
0.14433999 0.15327001 0.064943001
0.066905998 0.1901 -0.037190001
0.066987999 0.19151001 -0.037073001
0.068046004 0.19144 -0.037702002
0.097474001 0.21885 0.026783001
0.099233001 0.2194 0.027101001
0.10246 0.22092 0.027396999
0.1006 0.22044 0.027501
0.12794 0.26863 0.0015557
0.12714 0.26767999 -0.0004822
0.12771 0.26885 0.0014524
0.13404 0.24896 -0.039492
0.13406 0.24764 -0.040557999
0.13481 0.24889 -0.040456001
0.069118999 0.18679 -0.036674
0.13657001 0.25325999 0.01589
0.13546 0.25317001 0.016139001
0.13491 0.25222 0.016997
0.11412 0.21928 0.017689001
0.10377 0.22137 0.027543999
0.1064 0.22168 0.031341001
0.12081 0.22228 0.043965001
0.11924 0.22212 0.043949999
0.12326 0.22150999 0.043680999
0.11474 0.26210001 -0.03596
0.11857 0.22172999 0.047809999
0.12001 0.22171 0.047481
0.11467 0.22197001 0.048241001
0.11366 0.22198001 0.049522001
0.11315 0.22209001 0.048780002
0.13157 0.21921 0.045490999
0.11363 0.22163001 0.050503999
0.11198 0.22154 0.050512999
0.12653001 0.22025 0.047031
0.12534 0.22081 0.047253001
0.12668 0.21987 0.047951002
0.15549 0.25955001 -0.049904998
0.071911 0.17335001 -0.032742999
0.052129 0.19677 -0.0013926
0.052081998 0.19520999 -0.0016686
0.052997999 0.19817001 -0.0014592001
0.053128 0.19966 -0.0015225
0.053816002 0.20095 -0.0013195
0.053803999 0.20220999 -0.0017789
0.054837 0.20354 -0.0019181001
0.055252001 0.20479999 -0.0016144
0.056435 0.20601 -0.0024359999
0.057202999 0.20744 -0.0025018
0.057546001 0.20882 -0.0027826
0.058311 0.20981 -0.0034065
0.058874 0.21145 -0.0036036
0.076027997 0.13617 0.032719001
0.074376002 0.13632999 0.033257
0.075589001 0.1363 0.032040998
0.068512999 0.13378 0.011285
0.067978002 0.13369 0.010506
0.069343999 0.13324 0.0098422999
0.14139 0.24568 -0.049253002
0.14120001 0.24582 -0.048296001
0.13976 0.24517 -0.048560001
0.15166999 0.17723 0.014998
0.15229 0.17631 0.015465
0.15188 0.17608 0.014461
0.14313 0.13557 0.078625999
0.11291 0.14421 0.083407
0.11238 0.14431 0.082548
0.11179 0.14295 0.082584001
0.097352996 0.20923001 0.059372
0.098434001 0.21031 0.058841001
0.072085001 0.16334 0.062018
0.073743999 0.16553 0.062585004
0.072821997 0.16587999 0.062073
0.14262 0.14590999 0.086487003
0.14338 0.14557 0.085841998
0.14300001 0.14722 0.086534001
0.098655 0.23366 -0.0023455999
0.099403001 0.23322 -0.0032854001
0.098765001 0.23502 -0.0024727001
0.12743001 0.24770001 0.0094552999
0.12925 0.24778 0.010834
0.11107 0.13872001 0.082489997
0.1116 0.13846999 0.083682001
0.1113 0.14047 0.082608998
0.071088001 0.17637999 0.061028
0.070853002 0.17631 0.059778001
0.070299998 0.17501999 0.060102001
0.072103001 0.17718001 0.060563002
0.072525002 0.17856 0.060647
0.070726 0.15804 0.059625998
0.070579998 0.15932 0.060017001
0.070363 0.15924001 0.058981001
0.070695996 0.15793 0.058437999
0.093060002 0.21292999 0.050469
0.093093999 0.21298 0.049671002
0.092007004 0.21182001 0.049927998
0.095820002 0.21534 0.050418999
0.095345996 0.21548 0.049642
0.094287999 0.21425 0.049998999
0.10416 0.2405 -0.0027616001
0.10379 0.24032 -0.0034099
0.10502 0.24033 -0.0029659001
0.083485998 0.18471 0.070073001
0.082246996 0.18381 0.069820002
0.083311997 0.18369 0.070528001
0.089689001 0.19058999 0.069464996
0.090438999 0.19192 0.069057003
0.089974999 0.19183999 0.068248004
0.079478003 0.14577 0.065665998
0.078535996 0.14703 0.066197
0.078120999 0.14582001 0.064871997
0.090531997 0.19600999 0.063982002
0.10735 0.24108 -0.0019312
0.10751 0.24071001 -0.0028293999
0.10749 0.24135 -0.0021073001
0.075759001 0.16111 0.066405997
0.075604998 0.15941 0.066343002
0.075782999 0.15380999 0.064076997
0.075314 0.15514 0.064894997
0.075049996 0.15388 0.063284002
0.074639998 0.15561 0.064006999
0.076228999 0.14475 0.062735997
0.075576 0.14657 0.063427001
0.075764 0.14539 0.061875001
0.077071004 0.14329 0.061822999
0.076307997 0.14335001 0.060933001
0.075227998 0.14802 0.063638002
0.074629001 0.14813 0.062788002
0.074995004 0.14659999 0.062357999
0.077567004 0.14178 0.059973001
0.078020997 0.14144 0.061065
0.079921 0.1397 0.059533998
0.078925997 0.13968 0.058543999
0.079917997 0.1381 0.059307002
0.079392999 0.13818 0.058217
0.079124004 0.13585 0.058727998
0.078649998 0.13702001 0.058554001
0.07841 0.13549 0.05779
0.079375997 0.13679001 0.059103001
0.062258001 0.2485 0.00021824001
0.11363 0.24092001 -0.029687
0.1148 0.24173 -0.029634999
0.11399 0.24225 -0.028664
0.11342 0.2427 -0.02764
0.14145 0.17508 0.073910996
0.1407 0.1752 0.074611001
0.13422 0.17217 0.078399003
0.13281 0.17057 0.078589
0.14195 0.14715999 0.087433003
0.14244001 0.14864001 0.087178998
0.14144 0.14858 0.087711997
0.15054999 0.17338 0.064514004
0.15057001 0.17497 0.064411998
0.14986999 0.1753 0.065219998
0.14021 0.13019 0.071819998
0.13982999 0.13003001 0.073168002
0.14506 0.1559 0.065745004
0.1445 0.15614 0.066593997
0.14534 0.15737 0.066078998
0.14478 0.15757 0.06701
0.14579999 0.15863 0.066243999
0.1452 0.15903001 0.067429997
0.12221 0.1549 0.082814001
0.12238 0.15489 0.083866999
0.12268 0.15568 0.082298003
0.14867 0.25139999 -0.048075002
0.14888 0.25062999 -0.049245998
0.14933001 0.25218001 -0.047975
0.11237 0.14292 0.083430998
0.11149 0.14198001 0.082713
0.11061 0.13598 0.081133001
0.072241999 0.14859 0.059638001
0.072763003 0.14701 0.058876999
0.072623998 0.17577 0.062484998
0.072885998 0.17551 0.063562997
0.073200002 0.17738999 0.062470999
0.076153003 0.19223 0.058263
0.077319004 0.19363999 0.057443
0.076606996 0.19333 0.056798998
0.090874001 0.20474 0.055581
0.091443002 0.20587 0.055360999
0.090792 0.20653 0.054722998
0.14422999 0.18732999 0.070021003
0.13978 0.19076 0.071650997
0.13933 0.19217999 0.071074001
0.14222001 0.18757001 0.070923001
0.14232001 0.18922 0.070300996
0.14132001 0.17649999 0.073904999
0.14478 0.13998 0.080215
0.14526001 0.14108001 0.080507003
0.14448 0.13968 0.081104003
0.13852 0.13773 0.085745998
0.1389 0.13916001 0.086030997
0.13771001 0.13794 0.086041003
0.14490999 0.16336 0.069325
0.1454 0.16295999 0.068237998
0.14601 0.15995 0.066592
0.14548001 0.16038001 0.06758
0.11273 0.21923999 0.018246001
0.11161 0.21978 0.018369
0.10537 0.22168 0.027434999
0.11015 0.21976 0.018812999
0.10666 0.22137 0.027451999
0.10869 0.21991999 0.018928001
0.10769 0.22026999 0.019146999
0.1062 0.22015999 0.0195
0.105 0.22169 0.031412002
0.059073001 0.15073 0.0045210999
0.054228 0.15057001 0.0045738998
0.12204 0.22186001 0.044025
0.064781003 0.24017 -0.029792
0.065599002 0.23972 -0.030231999
0.12876999 0.24323 -0.047864001
0.12993 0.24415 -0.048594002
0.13049001 0.24312 -0.048195999
0.13026001 0.21923999 0.045738999
0.050616 0.19164 -0.001219
0.051134001 0.19295999 -0.0018217
0.050319999 0.19138999 -0.0017503001
0.051123001 0.19287001 0.00025636001
0.051587 0.19406 2.5806001e-05
0.051284 0.19401 -0.00037376999
0.051577002 0.19385 -0.0015129
0.050744001 0.19272999 -0.00088066002
0.13436 0.21764 0.045428999
0.12783 0.12752999 0.00064653001
0.12853999 0.12834001 0.0019354
0.12785 0.12661999 0.0013673001
0.13305999 0.21782 0.045602001
0.052609999 0.19678 -0.00046792999
0.071975999 0.16185001 0.029638
0.071948998 0.16003001 0.0296
0.071707003 0.16046 0.029889001
0.053017002 0.19798 -0.00066162
0.053962 0.19927999 -0.00053840003
0.054432001 0.20056 -0.00070515001
0.054772999 0.20198999 -0.00088052999
0.055410001 0.20347001 -0.0011751
0.055785999 0.20472001 -0.00076143001
0.056327999 0.20625 -0.0014032
0.057108 0.20717999 -0.0014825
0.057859998 0.20862 -0.0018893
0.058649998 0.20994 -0.0023395999
0.059602 0.21115001 -0.0022215999
0.1081 0.23932999 -0.030188
0.11004 0.23995 -0.029983001
0.11012 0.23987 -0.029297
0.054862998 0.15001 0.0075981002
0.055610001 0.14949 0.0082625002
0.056154002 0.15025 0.0079178996
0.079144999 0.18855 0.064372003
0.075476997 0.17217 0.064638004
0.075921997 0.17375 0.064879
0.074726 0.17233001 0.064015999
0.10585 0.21144 0.063901998
0.10644 0.21127 0.064413004
0.10721 0.21224 0.063917004
0.076295003 0.17465 0.064686
0.075361997 0.17397 0.064103998
0.078132004 0.19461 0.056283001
0.076223001 0.19385999 0.056033999
0.072246999 0.15451001 0.060350999
0.072385997 0.15604 0.061069001
0.071883999 0.15602 0.060196001
0.099578001 0.19686 0.072074004
0.10103 0.19792999 0.071670003
0.10009 0.19787 0.071203001
0.094306 0.19222 0.071734004
0.094708003 0.19374 0.071621999
0.093736 0.19379 0.071006998
0.095619999 0.20666 0.059739999
0.079225004 0.18298 0.067727
0.078785002 0.18434 0.067093
0.073523998 0.16715001 0.062682003
0.072929002 0.16711999 0.062435001
0.092972003 0.20279001 0.058534998
0.093028001 0.20421 0.058697999
0.092431001 0.20275 0.057900999
0.073766001 0.17259 0.063500002
0.093482003 0.20545 0.058557998
0.093204997 0.20576 0.05776
0.072140999 0.1874 0.057349999
0.072559997 0.18773 0.058182001
0.072448999 0.18869001 0.057197999
0.074061997 0.18267 0.061356001
0.074314997 0.1839 0.061292998
0.074011996 0.18388 0.060660001
0.073197998 0.18261001 0.060784001
0.073152997 0.18178 0.061032001
0.074478 0.13946 0.053509999
0.075230002 0.14083999 0.053117
0.074028999 0.14101 0.052609999
0.070237003 0.15063 0.057546001
0.070173003 0.15211 0.058102001
0.070063002 0.15215001 0.056915998
0.069998004 0.16627 0.057828002
0.070490003 0.16635001 0.059133001
0.069444001 0.16814999 0.058419999
0.070602998 0.15362 0.056582
0.069963001 0.15383001 0.055798002
0.069801003 0.15222 0.055918001
0.080050997 0.14725 0.066912003
0.079092003 0.14844 0.067224003
0.079337001 0.14719 0.066791996
0.12438 0.18203001 0.081596002
0.12343 0.18185 0.081854999
0.12308 0.18119 0.082043
0.089514002 0.19489001 0.064452
0.089291997 0.19471 0.063428998
0.076283 0.16199 0.066405997
0.076736003 0.16203 0.067281999
0.075769 0.15217 0.063904002
0.075282 0.1522 0.063073002
0.074481003 0.15094 0.063175
0.075299002 0.15087999 0.064046003
0.075097002 0.14951 0.063927002
0.074538 0.1494 0.062985003
0.075796001 0.1566 0.065669999
0.076389998 0.15493 0.065133996
0.073803999 0.17685001 0.063141003
0.11611 0.24325 -0.0008944
0.11738 0.2441 -0.00093389
0.11748 0.24394 0.00060956
0.075681001 0.15790001 0.066186003
0.15397 0.25600001 -0.049162
0.15299 0.25656 -0.048037998
0.1232 0.24722999 -0.00077836
0.12314 0.24684 0.00014839999
0.1218 0.24642999 -0.0001077
0.064735003 0.24935 0.00062022998
0.064659998 0.24935 0.00056103
0.063579001 0.24798 0.00074818003
0.12107 0.14793 0.090382002
0.12126 0.14916 0.090150997
0.12069 0.148 0.090014003
0.13493 0.18595 0.076531
0.13474 0.18731999 0.075897001
0.13407999 0.18610001 0.077005997
0.14401001 0.16021 0.069188997
0.14472 0.16168 0.069358997
0.096322 0.23546 -0.00048064999
0.096620999 0.23686001 -0.00093356002
0.095675997 0.23523 -0.00028338999
0.10347 0.23565 -0.0088787004
0.10333 0.23559 -0.0078136995
0.14647999 0.16150001 0.066786997
0.146 0.16143 0.067492999
0.14653 0.16271999 0.066666998
0.14616001 0.16277 0.067803003
0.14639001 0.16439 0.066918001
0.14635 0.16408999 0.067518003
0.14704999 0.16532999 0.066669002
0.14623 0.16558 0.067372002
0.068718001 0.24641 -0.032887999
0.12163 0.12445 0.0069072
0.12114 0.1257 0.0074053002
0.12057 0.12576 0.0062992
0.1247 0.1233 0.0062178001
0.12319 0.12385 0.0065942002
0.12434 0.12358 0.0050689001
0.14756 0.16705 0.066646002
0.14677 0.16722 0.067218997
0.14731 0.17523 0.068856001
0.14735 0.17688 0.068673
0.14658 0.17684001 0.069398001
0.13675 0.16155 0.075846002
0.13676 0.16293 0.075971998
0.14402001 0.18997 0.068986997
0.14356001 0.19156 0.068094999
0.14396 0.18599001 0.070188001
0.14783999 0.16854 0.066858999
0.14693999 0.16869999 0.067814998
0.14233001 0.19033 0.070148997
0.14362 0.13663 0.078789003
0.14417 0.1382 0.079571001
0.14308 0.13725001 0.080110997
0.14589 0.14210001 0.081046
0.14532 0.14235 0.081794001
0.14485 0.14127 0.081716999
0.12332 0.1875 0.080403998
0.12272 0.18714 0.080545001
0.12361 0.18635 0.080829002
0.14587 0.16571 0.068273999
0.079208001 0.17725 0.067988001
0.079248004 0.1758 0.067886002
0.080213003 0.17701 0.068882003
0.10484 0.22018 0.019693
0.10326 0.22015999 0.019847
0.10204 0.22001 0.020013999
0.112 0.22150999 0.026320999
0.11087 0.22146 0.026842
0.11344 0.22129001 0.026438
0.10057 0.21999 0.020055
0.098935001 0.21958999 0.020126
0.097612999 0.21933 0.019861
0.11911 0.22036 0.025137
0.11474 0.22093 0.025937
0.10044 0.22093 0.031153999
0.098552004 0.21971001 0.030731
0.10336 0.22156 0.031335
0.12933999 0.21931 0.032756001
0.12846 0.21912 0.032136001
0.12401 0.22103 0.034618001
0.13402 0.21552999 0.051281001
0.071258001 0.23071 -0.038012002
0.072513998 0.23074 -0.038415
0.072105996 0.22943 -0.038502
0.15606 0.26324999 0.012944
0.05023 0.14793999 -0.0022020999
0.050542999 0.14906999 -0.0010718
0.051715001 0.14924 -0.0016278001
0.051259998 0.18413 -0.00024734001
0.051038999 0.18557 8.3102997e-05
0.050678998 0.18596999 -0.00097871001
0.050483 0.18709999 -0.00050120999
0.050760999 0.18582 -0.0015622
0.050818 0.18709999 0.0003289
0.15325999 0.25942999 0.010953
0.1541 0.26073 0.01052
0.050833002 0.18876 0.00088231999
0.050765999 0.18881001 -0.00043079999
0.061264001 0.15842 0.012596
0.061539002 0.15843999 0.011488
0.061135001 0.15707 0.011572
0.050902002 0.18989 0.0012199
0.050133001 0.19006 -0.00025894001
0.050880998 0.19136 0.00088811998
0.050650001 0.19162001 -0.00015963
0.050932001 0.19269 0.001096
0.10451 0.23181 -0.011693
0.051335 0.19407 0.0012796
0.073900998 0.19434001 0.034559999
0.074421003 0.19414 0.035241
0.074344002 0.19573 0.034711
0.05184 0.19542 0.00096415001
0.052731 0.19679999 0.00068401999
0.051952999 0.19548 2.8585e-05
0.053369001 0.19764 0.00060770003
0.054086 0.19919001 0.00035297999
0.05466 0.20072 0.00024266
0.05511 0.20207 0.00012043
0.055176999 0.20338 0.00024815
0.055828001 0.20487 -5.1302999e-05
0.056462001 0.20596001 0.00015756
0.057296999 0.20706999 -0.00052410999
0.058021002 0.20837 -0.0010717
0.059254002 0.20963 -0.0011613
0.059896 0.21109 -0.001489
0.060674999 0.21205001 -0.0010232
0.060164001 0.21228001 -0.0017951
0.075742997 0.16667999 0.064934999
0.074837998 0.16655999 0.064251997
0.07181 0.14026 0.051444001
0.071617 0.14144 0.050409999
0.071059003 0.14024 0.050669
0.095544003 0.18471 0.077018
0.095118999 0.18336 0.076863997
0.095816001 0.18402 0.077252001
0.076215997 0.17624 0.064955004
0.075150996 0.17521 0.064144
0.072582997 0.15595999 0.061712999
0.07158 0.15747 0.061471
0.11329 0.14693999 0.081032
0.11288 0.14692999 0.080346003
0.095017001 0.19501001 0.071709998
0.094333 0.19492 0.070845
0.072302997 0.15764999 0.062020998
0.071626998 0.15883 0.062509999
0.071392 0.15896 0.061686002
0.083950996 0.18878999 0.066739999
0.084827997 0.18874 0.067674004
0.084633 0.19009 0.066639997
0.10947 0.17443 -0.026040001
0.13077 0.12529001 0.067777
0.13163 0.12503 0.066823997
0.13348 0.12630001 0.069628
0.083828002 0.18731999 0.068218999
0.14515001 0.16166 0.068432003
0.073696002 0.16859999 0.063133001
0.072476 0.16869999 0.062694997
0.074467003 0.15398 0.062691003
0.073799998 0.15558 0.063276999
0.074198999 0.18674 0.059631001
0.074639 0.18821999 0.059721999
0.069845997 0.16506 0.057758
0.070102997 0.16531 0.058679
0.096738003 0.21478 0.052219
0.096679002 0.2155 0.051337998
0.095329002 0.21417999 0.051667999
0.095554002 0.21394999 0.052988
0.071330003 0.15594 0.057991002
0.070561998 0.15785 0.057224002
0.070873998 0.15492 0.057089999
0.071009003 0.15627 0.056735002
0.069214001 0.16949999 0.058943
0.069592997 0.16958 0.059528999
0.069072999 0.17104 0.059218999
0.069712996 0.17078 0.059836
0.069729 0.17235 0.060337
0.069103003 0.17248 0.059448998
0.080043003 0.14595 0.066165999
0.078853004 0.15172 0.067956999
0.078359999 0.15159 0.067045003
0.078298002 0.15011001 0.066710003
0.088875003 0.19327 0.064884998
0.088100001 0.19348 0.063840002
