# .PCD v0.7 - Point Cloud Data file format
VERSION 0.7
FIELDS x y z
SIZE 4 4 4
TYPE F F F
COUNT 1 1 1
WIDTH 1494
HEIGHT 1
VIEWPOINT 0 0 0 1 0 0 0
POINTS 1494
DATA ascii
0.091475002 -0.0011399999 0.22479001
0.092019998 -0.0021140999 0.22414
0.092307001 -0.0028047999 0.22344001
0.093079999 -0.0038772 0.22261
0.093076997 -0.0051810001 0.22160999
0.094048001 -0.0057566999 0.22093999
0.094359003 -0.0068788002 0.22025
0.094729997 -0.0075193001 0.219
0.094797999 -0.0087484 0.21802001
0.095242999 -0.0096231997 0.21698
0.095408998 -0.010466 0.21581
0.033227999 -0.048326999 0.26625001
0.032577999 -0.048796002 0.26538
0.057898 -0.0037209999 0.12359
0.0040153 -0.053890001 0.22490001
0.083605997 0.051383 0.15872
0.082987003 0.050489001 0.15806
0.082277998 0.051741 0.15843999
0.040929001 -0.033659 0.26822001
0.019118 -0.010714 0.13587999
0.073446997 0.0046921 0.23547
0.073069997 0.0056444998 0.23571
0.013366 -0.084900998 0.19395
0.013315 -0.0073238001 0.21284001
0.081271 0.014443 0.23244999
0.082179002 0.012847 0.23217
0.082998 0.011542 0.23176
0.083604999 0.010489 0.23131
0.084435001 0.0092780003 0.23133001
0.085533001 0.0080637001 0.23029999
0.085923001 0.0068981 0.22966
0.086452998 0.0058717998 0.22939999
0.087108001 0.0047145002 0.22894
0.087839998 0.0037694999 0.22808
0.088211998 0.0025108 0.22778
0.089132003 0.0014997 0.22721
0.089759 0.00047614001 0.22662
0.090363003 -0.00042669999 0.22566
0.090821996 -0.0014931 0.22507
0.091374002 -0.0028423001 0.22452
0.091953002 -0.0038352001 0.2238
0.092506997 -0.0045797001 0.22318999
0.092954002 -0.0054531 0.22216
0.093162 -0.0065548001 0.22161999
0.093851 -0.0072587002 0.22036
0.093916997 -0.0084592002 0.21964
0.094223 -0.0091586001 0.2185
0.094627999 -0.010203 0.21735001
0.094494998 -0.010918 0.21608
-0.0083448002 -0.047219999 0.24439999
0.020775 -0.010471 0.1376
0.028046999 -0.041976001 0.21939
0.056311 -0.019451 0.15915
0.070266001 0.06129 0.17004
-0.0034119999 -0.052664999 0.26363
0.087817997 -0.020362999 0.18197
0.011084 0.007799 0.19736999
0.011161 0.0074065998 0.19873001
0.0043787998 -0.049672 0.22234
0.0080016004 0.00048366 0.19984999
0.0078274002 9.2615002e-05 0.20124
0.080553003 0.013593 0.23249
0.081249997 0.012166 0.23237
0.082259998 0.010811 0.23212001
0.083043002 0.0095827999 0.23156001
0.083687998 0.0084720002 0.23116
0.084569998 0.0074697998 0.23093
0.085345998 0.006354 0.23044001
0.085720003 0.0050464999 0.22961
0.086897999 0.0042436002 0.22928999
0.087346002 0.0029476001 0.22897001
0.087842003 0.0020293 0.22838999
0.088697001 0.00093472999 0.22724999
0.089273997 -0.00035282 0.22685
0.089763999 -0.001347 0.22635999
0.090222001 -0.002229 0.22562
0.090907998 -0.0035927 0.22490001
0.091583997 -0.0042244 0.22406
0.091978997 -0.005291 0.22364999
0.092248 -0.0064834999 0.22284
0.092580996 -0.0072021 0.22187001
0.093332 -0.0082692998 0.22091
0.093235001 -0.0088879997 0.21977
0.093307003 -0.0098289996 0.21897
0.093859002 -0.010739 0.21800999
0.093769997 -0.01164 0.21681
0.094049998 -0.012145 0.21548
0.027078999 -0.035225999 0.22060999
0.022268999 -0.01033 0.13903999
0.057339001 0.029028 0.14902
0.092223004 -0.014743 0.21279
0.022456 -0.042725001 0.15081
0.021614 -0.043625001 0.15103
0.051057 0.046156999 0.15723
0.052074 0.045134999 0.1567
0.050044 0.045527 0.15721001
0.023 -0.010265 0.14016999
0.0054188999 0.036237001 0.17336001
0.086966999 -0.019956 0.18356
0.08698 -0.020990999 0.18234
0.086838 -0.021933001 0.18106
0.054279 0.059677999 0.19293
0.052216999 0.031008 0.15119
0.051392 0.030393001 0.15119
-0.0028460999 -0.053654999 0.26315001
0.045031998 -0.0029221999 0.12441
0.046190001 -0.0045043998 0.12566
-0.0087828999 -0.037852999 0.16801
0.080752999 0.011347 0.23255
0.081547998 0.010258 0.23221999
0.082401 0.0089346999 0.23218
0.083058 0.0077501 0.23177999
0.083816998 0.0067316 0.2313
0.084660001 0.0059504001 0.23101
0.085321002 0.0046803998 0.23018
0.085755996 0.0035343 0.22983
0.086519003 0.0023892999 0.22909001
0.087035 0.0012786 0.22849
0.087971002 0.00014167999 0.22801
0.088462003 -0.00066702999 0.22702999
0.089077003 -0.0019275 0.22687
0.089364998 -0.0029597001 0.22597
0.089906998 -0.0039463001 0.22522999
0.090728998 -0.0048380001 0.22479001
0.091362 -0.0061189998 0.2242
0.091661997 -0.0069785002 0.22318
0.091983996 -0.0078897001 0.22221
0.092308 -0.0087989001 0.22127999
0.092711002 -0.0095242998 0.22040001
0.092565 -0.010511 0.21934
0.093068004 -0.011141 0.21822
0.093304999 -0.011929 0.21696
0.093440004 -0.012805 0.21568
0.0090709999 0.022979001 0.16732
0.025832999 -0.018782999 0.2219
0.02478 -0.019105 0.22150999
-0.0024865 -0.054526001 0.26212999
0.086092003 -0.020858999 0.18387
0.086328998 -0.021384001 0.18265
0.086234003 -0.021991 0.18113001
0.066531003 -0.0068402002 0.14342
-0.0017200999 -0.055971 0.26148
-0.0012248 -0.056754999 0.26085001
0.024168 0.032072999 0.15842
0.00084628002 0.037030999 0.17025
0.00015648 0.036419999 0.16971
0.079026997 0.01209 0.23322999
0.080075003 0.010959 0.23305
0.080683999 0.0095702996 0.23275
0.081505999 0.0087534003 0.23231
0.082431003 0.0074514998 0.23210999
0.083134003 0.0061527998 0.23147
0.084068999 0.0051918998 0.23111001
0.084587999 0.0040201 0.23055001
0.085740998 0.0028890001 0.23016
0.085858002 0.0019757 0.22968
0.086544 0.00072322 0.22894999
0.087164998 -0.00036258 0.22843
0.087853998 -0.0014556 0.22811
0.08828 -0.0026137 0.22706001
0.088803999 -0.0035828 0.22638001
0.089542001 -0.0046001999 0.22606
0.090016998 -0.0058082999 0.2251
0.090395004 -0.0064387 0.22426
0.091039002 -0.0074041001 0.22338
0.091218002 -0.0086412001 0.22285999
0.091479003 -0.0093668001 0.22178
0.091931 -0.010303 0.22081
0.092042997 -0.01095 0.21971001
0.092138998 -0.011735 0.21873
0.092464 -0.013189 0.21713001
0.092579998 -0.013477 0.21599001
0.092370003 -0.014097 0.21441001
0.086213 -0.023058999 0.17963
0.015169 0.046764001 0.16507
0.042435002 -0.048652001 0.27970999
0.057101 -0.0049791001 0.12518001
0.058408 -0.0046032998 0.12498
0.057385001 -0.0055161999 0.12582999
-0.00071343 -0.057606999 0.25974
-0.00041062001 -0.058444001 0.25876001
0.084830999 -0.02028 0.18491
0.073322996 0.00035833 0.2359
0.073349997 0.00096988003 0.23569
0.085331999 -0.021817001 0.18241
0.085284002 -0.022843 0.18114001
0.084997997 -0.023451 0.17976999
0.033183999 -0.078386001 0.17383
0.032467999 -0.079691999 0.17522
-0.00019285 -0.059622001 0.25802001
0.00039325 -0.060442999 0.25716999
0.015735 -0.013069 0.13252001
0.0037107 0.020872001 0.16288
0.005388 0.020114999 0.16399001
0.0050121001 0.021268001 0.16418
0.078222997 0.011569 0.2335
0.079348996 0.010443 0.23341
0.080105998 0.0088013997 0.2331
0.080885001 0.0077684 0.23284
0.081814997 0.0068663 0.23238
0.082432002 0.0055391998 0.23186
0.083355002 0.0046299002 0.23142999
0.083694004 0.0032190999 0.23094
0.084573999 0.0023264 0.23067001
0.085461996 0.00092809001 0.23011
0.085878998 -2.1784001e-05 0.22962999
0.086162001 -0.0011261 0.22879
0.087095998 -0.001819 0.22781
0.087388001 -0.0029809 0.22754
0.08805 -0.0040750001 0.22713999
0.088552997 -0.0053559002 0.22622
0.089176998 -0.0062217 0.22536001
0.089621998 -0.0071182 0.22491001
0.090227999 -0.0081813997 0.22395
0.090710998 -0.0089955004 0.2234
0.090825997 -0.0098871998 0.22226
0.091317996 -0.011056 0.22091
0.091436997 -0.011804 0.21973
0.091724999 -0.01245 0.2186
0.091514997 -0.013333 0.21763
0.091563001 -0.014129 0.21618
0.091803998 -0.014837 0.21469
0.013028 -0.0086812004 0.1539
0.042291 -0.048106998 0.28061
0.027921 -0.034596 0.22099
0.00077422999 -0.061593998 0.25656
0.00056130998 -0.062091 0.25529999
0.084105998 -0.021330001 0.18401
0.084133998 -0.022407999 0.18256
0.084472999 -0.023358 0.18128
0.084294997 -0.024007 0.17975999
0.0010429 -0.063262001 0.25402001
0.0014541 -0.064018004 0.25299001
0.078344002 0.0096677998 0.23384
0.079219997 0.0087198 0.23331
0.080118999 0.0070541999 0.23292001
0.081046 0.006083 0.23284
0.081704997 0.0050749001 0.23253
0.082386002 0.0037781 0.23175
0.083360001 0.0027894999 0.23162
0.083883002 0.0015392 0.23088001
0.084587999 0.00026216 0.23044001
0.085219003 -0.00056823 0.22978
0.085886002 -0.0019739 0.22920001
0.086392 -0.0027663 0.22857
0.086924002 -0.0037712001 0.22776
0.087526999 -0.0046367999 0.22723
0.088124 -0.0056741 0.22672001
0.088450998 -0.0069077001 0.22567999
0.089031003 -0.0077281999 0.22503
0.089544997 -0.0086329998 0.22420999
0.089895003 -0.0098283999 0.22335
0.090136997 -0.010543 0.22246
0.090278998 -0.011337 0.22115999
0.090345003 -0.0123 0.21995001
0.090956002 -0.01316 0.21912
0.090879999 -0.014006 0.21799
0.091002002 -0.014553 0.21639
0.091119997 -0.015324 0.21529
0.0228 -0.06346 0.23881
0.023343001 -0.064552002 0.23819
0.013966 -0.0085039996 0.21331
0.0014032 -0.064796999 0.25189999
0.039914001 0.056876 0.16844
0.038490999 0.058049999 0.16869
0.083806999 -0.02077 0.18483
0.083181001 -0.022065001 0.18348999
0.083352 -0.022721 0.18251
0.083296001 -0.023854 0.18124001
0.023635 -0.010735 0.14158
-0.0058940998 -0.065428004 0.20215
-0.0057637999 -0.064662002 0.20103
0.058134999 0.021345999 0.23
0.056775998 0.021646 0.22933
0.077748999 0.0089889001 0.23398
0.078590997 0.0078344997 0.23366
0.079287998 0.0066173999 0.23319
0.080337003 0.0054283999 0.23325001
0.081109002 0.0044531999 0.23270001
0.081840999 0.0031028001 0.23219
0.082581997 0.0019507 0.23179001
0.083181001 0.0011135 0.23124
0.083908997 -0.00031795001 0.23074
0.084578 -0.0012719 0.23027
0.084972002 -0.0021084 0.22958
0.085890003 -0.0032331001 0.22860999
0.086254999 -0.0043663001 0.22829001
0.086672001 -0.0052375002 0.22759999
0.087334 -0.0064707999 0.22696
0.087730996 -0.0073795002 0.22645999
0.088443004 -0.0083582997 0.22544
0.088729002 -0.0092222998 0.22437
0.089001 -0.010226 0.22345001
0.089373998 -0.011266 0.22265001
0.089541003 -0.012166 0.2216
0.089838997 -0.013017 0.22019
0.090143003 -0.013886 0.21935999
0.090306997 -0.014363 0.21849
0.090328 -0.015408 0.21714
0.090487003 -0.015967 0.21563999
0.090709001 -0.01682 0.21462999
-0.019311 -0.049853999 0.28692001
-0.01866 -0.049954999 0.28687
0.0026505 -0.072725996 0.22269
-0.017066 -0.04685 0.28747001
0.082431003 -0.022423999 0.18398
0.08224 -0.023517 0.18242
0.082511999 -0.024320001 0.18131
-0.0060248999 -0.063997999 0.20012
0.077071004 0.0084226998 0.23425999
0.078342997 0.0072118002 0.23404001
0.078780003 0.0060672001 0.23391999
0.079539001 0.0047709001 0.23352
0.080256 0.0038352001 0.23289999
0.080936998 0.0024478999 0.23277999
0.081804 0.001588 0.23201001
0.082723998 0.00040600001 0.23157001
0.083010003 -0.00091518002 0.23103
0.083966002 -0.0018424999 0.23038
0.084376 -0.0029041001 0.22961999
0.084702998 -0.0037388001 0.22940999
0.085805997 -0.0049880999 0.22846
0.086026996 -0.0060418001 0.22788
0.086567998 -0.0073175998 0.22693001
0.086928003 -0.008161 0.22645999
0.087323003 -0.0088275997 0.22526
0.088087 -0.0099791 0.2245
0.088019997 -0.010895 0.22363999
0.088679001 -0.011848 0.22271
0.088818997 -0.012611 0.22178
0.089281 -0.013767 0.22088
0.089735001 -0.014172 0.21978
0.089590997 -0.014973 0.21874
0.089928001 -0.016175 0.21731
0.089882001 -0.016845001 0.21627
0.090178996 -0.017569 0.21533
0.03421 -0.061158001 0.25264999
0.081038997 -0.023065999 0.18381999
0.081114002 -0.023777001 0.18235999
0.081482999 -0.024737 0.18139
0.081464998 -0.025397001 0.17989001
0.077099003 0.0067472002 0.23417
0.077941 0.0053825001 0.23443
0.078748003 0.0041976999 0.23361
0.079543002 0.0031415001 0.23336001
0.080213003 0.0019610999 0.23296
0.080835998 0.00070000999 0.23252
0.081986003 -0.00035424001 0.23179001
0.082395002 -0.0013716 0.23116
0.082778998 -0.0025893999 0.23082
0.083645999 -0.0034904 0.23018
0.084366001 -0.0045155999 0.2297
0.084709004 -0.0055697998 0.22898
0.085280001 -0.006755 0.22835
0.085826002 -0.0076759998 0.22716001
0.086135998 -0.0083977003 0.22658999
0.086372003 -0.0097820004 0.22596
0.087233998 -0.010405 0.22498
0.087295003 -0.011318 0.22407
0.087835997 -0.012465 0.22313
0.088361003 -0.013566 0.22217
0.088669002 -0.014196 0.22142
0.088656999 -0.014959 0.22052
0.088913999 -0.015856 0.21894
0.089153998 -0.016719 0.21800999
0.089414999 -0.017727001 0.21692
0.089445002 -0.018116999 0.2157
0.080459997 -0.026830999 0.17842001
0.080750003 -0.026045 0.1802
0.0052355998 -0.049027 0.15893
0.041345 -0.050152 0.27585
0.040153001 -0.050145999 0.27418
-0.014854 -0.046782002 0.24928001
-0.013909 -0.045084 0.24845
-0.013027 -0.04583 0.24742
0.075257003 0.0089477003 0.23480999
0.077513002 0.0049117999 0.23439001
0.078331001 0.0034855001 0.23419
0.079026997 0.0022638 0.23383
0.079667002 0.001433 0.23312999
0.080124997 0.00012154 0.23283
0.081280999 -0.00083683 0.23218
0.081780002 -0.0020609 0.2315
0.082167998 -0.0031486 0.23100001
0.082525998 -0.0039574001 0.23044001
0.083286002 -0.0051913001 0.22976001
0.083815999 -0.0061054002 0.22898
0.084613003 -0.0073442999 0.22844
0.085271999 -0.0083058998 0.22764
0.085620999 -0.0092459004 0.22718
0.085952997 -0.010037 0.22592001
0.086423002 -0.011066 0.22519
0.086603999 -0.011954 0.22457001
0.087093003 -0.012854 0.2236
0.087899998 -0.013963 0.22257
0.087903999 -0.014859 0.22177
0.088638 -0.015732 0.22077
0.088320002 -0.016452 0.21964
0.088630997 -0.017394001 0.21872
0.088643998 -0.018126 0.21714
0.088993996 -0.019014999 0.21597999
0.088330001 -0.019626999 0.2146
0.079717003 -0.026210999 0.17995
0.079618998 -0.027183 0.17815
0.013973 -0.0091992002 0.21465001
0.036171 0.02124 0.22302
0.035401002 0.022583 0.22342999
0.034917999 0.022143999 0.22307999
0.030347999 0.015471 0.13833
0.077945001 0.001821 0.23401999
0.077195004 0.0027403 0.23452
0.078794003 0.00082562998 0.23382001
0.080017999 -0.00033921999 0.23288999
0.079947002 -0.0017436 0.23246001
0.081005998 -0.0024244001 0.23185
0.081758 -0.0037368 0.23141
0.082097001 -0.0047876998 0.23052
0.082796998 -0.0057032001 0.23035
0.083163999 -0.0068717999 0.22928999
0.083486997 -0.0076246001 0.2287
0.084339 -0.0089595998 0.22787
0.084831998 -0.0095851999 0.22708
0.085303001 -0.011021 0.22641
0.085405998 -0.011784 0.22553
0.086274996 -0.012679 0.22469001
0.086273998 -0.013825 0.22371
0.086805001 -0.014434 0.22307
0.087301001 -0.015313 0.22236
0.087255999 -0.016302999 0.22132
0.087794997 -0.017178999 0.22005001
0.087646998 -0.01815 0.21878
0.087811001 -0.018976999 0.21769001
0.088252999 -0.019562 0.21594
0.087771997 -0.020176999 0.21481
0.073576003 -0.026974 0.18081
0.072453998 -0.010093 0.14692
0.071147002 -0.0094736004 0.14587
0.078601003 -0.026965 0.17978001
0.078157 -0.027257999 0.17825
-0.013755 -0.062093001 0.26291999
0.062941 -0.019962 0.1559
0.063780002 -0.02005 0.15528999
0.063033998 -0.021379 0.15667
0.0062770001 -0.0025438 0.14752001
0.0053062998 -0.0024822 0.14758
0.0060346001 -0.0036997001 0.14514001
0.076609001 0.0025386999 0.23451
0.077501997 0.0013921 0.23432
0.078033999 0.00046380999 0.23395
0.078726001 -0.00096012 0.23322999
0.079322003 -0.0018838 0.23257001
0.080265 -0.0031089 0.23222999
0.080523998 -0.0042472002 0.23156001
0.081269003 -0.0049784002 0.23100001
0.082034998 -0.0061952998 0.23018
0.082328998 -0.0072730002 0.22971
0.083059996 -0.0083443001 0.22905999
0.083525002 -0.0095210001 0.22832
0.083856001 -0.010357 0.2274
0.084867999 -0.011067 0.22689
0.084934004 -0.012474 0.22578
0.085135996 -0.013211 0.22510999
0.085763998 -0.014108 0.22396
0.086337999 -0.015275 0.22337
0.086387999 -0.015898 0.22239
0.086590998 -0.016607 0.22107001
0.086920001 -0.017502001 0.22047
0.087223001 -0.018445 0.219
0.087245002 -0.019339001 0.21773
0.087461002 -0.020028001 0.21639
0.087278001 -0.020956 0.21478
0.024055 -0.011342 0.14279
0.077448003 -0.028053001 0.17806
0.019773999 -0.0083314003 0.21789999
0.076102003 -0.029137 0.17623
-0.018802 -0.059698999 0.27465001
0.027412999 -0.013217 0.14047
0.045646001 0.037519999 0.22102
0.047352999 0.037067 0.22149999
0.046133999 0.038196001 0.22064
0.076692998 0.00062781002 0.23475
0.076121002 0.0021140999 0.23497
0.077260002 -0.00064579002 0.23408
0.078064002 -0.0014171 0.2335
0.078847997 -0.0025404 0.23292001
0.079294004 -0.0037407 0.23243
0.079754002 -0.0048134001 0.23188999
0.080715999 -0.0058329999 0.23128
0.081087999 -0.0067238999 0.23058
0.081421003 -0.0080065997 0.22983
0.082263 -0.0087903999 0.22925
0.082703002 -0.0095998999 0.22838999
0.083274998 -0.010724 0.22765
0.083673 -0.011801 0.22691999
0.084356003 -0.012808 0.22623
0.084639996 -0.013978 0.22528
0.084900998 -0.014604 0.22436
0.085244 -0.01562 0.22349
0.085610002 -0.016758 0.22244
0.085868001 -0.017387999 0.22153001
0.086030997 -0.01853 0.22045
0.086180001 -0.018797001 0.21957
0.086580001 -0.019789999 0.21764
0.086424001 -0.020577 0.21659
0.086243004 -0.021423001 0.21518999
0.064566001 -0.0069096 0.14353
0.064868003 -0.0080538001 0.14495
0.063790999 -0.0081952 0.14494
0.025106 -0.057126999 0.16387001
0.025982 -0.056329001 0.16271999
0.071124002 -0.030812001 0.16733
0.072261997 -0.030743999 0.1674
0.071529001 -0.031134 0.16862001
0.075769 -0.0283 0.17784999
0.014568 -0.01015 0.21562999
0.037248999 -0.049394 0.27201
0.036887001 -0.049284 0.27171001
0.036968 -0.050643001 0.27131
0.076160997 0.00017951 0.23502
0.076707996 -0.00088179001 0.23431
0.077395998 -0.0023340001 0.23380999
0.078065999 -0.0033511 0.23334
0.078304 -0.0042694998 0.23271
0.079077996 -0.0051345001 0.23208
0.079742 -0.0066626002 0.23163
0.080649003 -0.0073548001 0.23089001
0.080899999 -0.0085428003 0.23016
0.081508003 -0.0094609 0.22947
0.081597 -0.010456 0.22858
0.082594998 -0.011407 0.22781999
0.082667001 -0.012213 0.22722
0.054288998 -0.01068 0.15288
0.037067998 -0.020896999 0.14704999
0.036187999 -0.020839 0.147
0.014773 -0.011435 0.21662
0.015671 0.017902 0.1761
0.059227999 0.050177999 0.2101
0.074895002 0.0029607001 0.23506001
0.028248001 -0.017797999 0.13259999
0.028532 -0.01859 0.13155
0.048776999 -0.004772 0.12502
0.050009001 -0.0046673999 0.12457
0.049315002 -0.0060179001 0.12635
0.065141 -0.030222001 0.16585
0.065172002 -0.030396 0.16700999
0.063919 -0.029654 0.16585
0.064571999 -0.028698999 0.16327
0.064482003 -0.029456999 0.16441999
0.063631997 -0.028603001 0.16364001
0.043862998 -0.0059914999 0.13025001
0.043157 -0.0060898 0.13016
0.042824998 -0.0057760999 0.12890001
0.064600997 -0.017867999 0.15375
0.063429996 -0.017453 0.15414999
-0.021336 -0.058086 0.2764
-0.021979 -0.057624001 0.27570999
0.056627002 -0.0052028 0.14456999
0.057434998 -0.0051811002 0.14461
0.056724999 -0.0057402002 0.14571001
0.039066002 0.036600001 0.15885
0.037967 0.03658 0.15869001
0.037684999 0.037864 0.15997
0.065673001 -0.030576 0.17557
0.066518001 -0.030076999 0.17523
0.063308999 -0.015308 0.15246999
0.048565 -0.0061174999 0.13895001
0.048951 -0.0055871001 0.14082
0.047386002 -0.0059655001 0.13913999
0.069379002 -0.017034 0.15155999
0.061012998 -0.011017 0.15025
0.061779998 -0.011401 0.14988001
0.061028998 -0.012335 0.1508
0.068503 -0.020763 0.15448999
0.068745002 -0.030487999 0.16463999
0.069522001 -0.030443 0.16466001
0.068989001 -0.030818 0.16624001
0.067808002 -0.031051001 0.17094
0.066885002 -0.030951001 0.17115
0.066639997 -0.030836999 0.16971999
0.068241999 -0.030229 0.17498
0.067757003 -0.030396 0.17501999
0.067111999 -0.030909 0.17317
-0.021787999 -0.058644999 0.2755
-0.02152 -0.058079999 0.27364999
-0.021260001 -0.059039999 0.27476999
0.067144997 -0.030605 0.1679
0.066490002 -0.030702 0.16824999
0.066197999 -0.030343 0.16689999
0.060341999 -0.013328 0.15228
0.060330998 -0.014644 0.15329
0.059438001 -0.014346 0.1531
0.058639001 -0.01165 0.15163
0.059958 -0.012124 0.15162
0.059384 -0.013064 0.15275
0.045779999 -0.0066302 0.13279
0.044622999 -0.0065249 0.13316999
0.044048999 -0.0065357001 0.13158
0.073233999 -0.030634999 0.16734999
0.073590003 -0.030539 0.16879
0.058805 -0.016322 0.15559
0.059760001 -0.016527001 0.15514
0.059046 -0.017618001 0.15640999
0.046098001 -0.0068572001 0.13104001
0.046227999 -0.0068560001 0.13225
0.045421999 -0.0068541002 0.13141
0.064015999 -0.0088028004 0.14595
0.065154999 -0.0090436004 0.14602
0.064471997 -0.0097158002 0.14696001
0.036095001 -0.018118 0.14404
0.035640001 -0.018296 0.14424001
0.063525997 -0.018703001 0.15501
0.064800002 -0.018934 0.15476
0.038463999 -0.018781999 0.14445999
0.039085999 -0.019644 0.14568
0.037515 -0.018988 0.14472
0.024307 -0.019173 0.12115
0.023122 -0.019001 0.12148
0.02297 -0.018533999 0.12034
0.021984 -0.018761 0.12034
0.021592 -0.017543999 0.11936
0.052007999 -0.0050777998 0.14106999
0.051332999 -0.0033442001 0.14328
0.024901001 -0.020305 0.1251
0.024293 -0.019995 0.12543
0.035448998 -0.017413 0.14274
0.065517999 -0.012122 0.14861
0.064507999 -0.01196 0.14884
0.057206001 -0.012651 0.15323
0.057556 -0.014065 0.15413
0.035913002 -0.015543 0.14076
0.053465001 -0.0045444998 0.14574
0.054846 -0.0052399002 0.14515001
0.053778999 -0.0054412 0.14636
-0.019595999 -0.059484001 0.27528
0.060506001 -0.01554 0.1542
0.059539001 -0.015314 0.15445
0.058485001 -0.0048007998 0.12599
0.019111 -0.013031 0.14997
0.020191999 -0.015702 0.15015
0.018393001 -0.015992001 0.14989001
0.067824997 -0.030557999 0.16631
0.067101002 -0.030561 0.16667999
0.066776998 -0.030513 0.16493
0.034380998 0.0034949 0.12943
0.033615001 0.0026465999 0.12931
0.015311 -0.012566 0.21734001
0.023783 -0.019959001 0.12437
0.024625 -0.020505 0.12377
0.023437999 -0.019424001 0.12292
0.024711 -0.019758999 0.12251
0.068613 -0.031091001 0.16935
0.067413002 -0.030764 0.16942
0.071685001 -0.029445 0.1761
0.072636999 -0.029735001 0.17588
0.072149999 -0.028269 0.17902
0.073829003 -0.026095999 0.18334
0.025552001 -0.057670001 0.16508999
0.049261998 -0.007069 0.13533001
0.048025001 -0.0067623002 0.13524
0.047474001 -0.0068991999 0.13382
0.060876999 -0.016826 0.15521
0.060782 -0.017835001 0.15583999
0.059792001 -0.017651999 0.15605
0.041172002 -0.021512 0.14765
0.040190998 -0.02029 0.14642
0.047244001 -0.0055171 0.12665001
0.046250001 -0.0054151998 0.12684
0.045642 -0.0054457998 0.12684999
0.045813002 -0.0060167001 0.12853999
0.044530001 -0.0051246998 0.12738
0.061092999 -0.013635 0.15200999
0.062097002 -0.013685 0.15147001
0.061383002 -0.01482 0.15259001
0.049777001 -0.0054551 0.14089
0.051171999 -0.0050834999 0.14103
0.050083 -0.0037948999 0.1434
0.00076448999 -0.056914002 0.22182
0.013997 -0.011866 0.21630999
0.013779 -0.010774 0.21505
0.059544999 -0.0046877 0.1267
0.038399 -0.022854 0.14859
0.038233001 -0.021568 0.14793999
0.048608001 -0.0039716 0.14531
0.048583999 -0.004067 0.14361
0.014042 0.020200999 0.16728
0.050609998 -0.0036706999 0.14506
0.050744001 -0.0044347998 0.14611
0.057263002 -0.0070596002 0.14692999
0.058173001 -0.0068120002 0.14650001
0.064147003 -0.0059480001 0.14268
0.063776001 -0.0069268998 0.14376999
0.061358001 -0.027154 0.16308001
0.061647002 -0.028246 0.16457
0.060672998 -0.027863 0.16475999
0.00023077001 -0.048553001 0.21712001
0.00032977 -0.049357999 0.21826001
0.063666001 -0.029448999 0.16479
0.062320001 -0.028138001 0.16366
0.071860999 -0.028277 0.16066
0.072429001 -0.028951 0.16175
0.023747999 -0.054117002 0.24465001
0.024092 -0.053901002 0.24511001
0.023859 -0.052933998 0.2439
0.055318002 -0.0054906001 0.12517001
0.055227 -0.0057756999 0.1265
0.054303002 -0.0063087 0.12656
0.054770999 -0.0064054001 0.12796
0.068085998 -0.030792 0.17271
0.0048734001 -0.069636002 0.23588
0.046959002 -0.0068242 0.13070001
0.047386002 -0.0070592002 0.13225
0.020221001 -0.018154999 0.1223
0.064204 -0.028168 0.16197
0.063184001 -0.027874 0.16235
0.069738999 -0.031127 0.16883001
0.068236001 -0.030857 0.16791999
0.044962998 -0.0061726999 0.13015001
0.058341999 -0.0088791 0.14868
0.058830999 -0.0097872997 0.1497
0.053203002 -0.0055803 0.12552001
0.054301001 -0.0054160999 0.12536
0.053652 -0.0060931002 0.12650999
0.062082 -0.029493 0.16659001
0.061151002 -0.029245 0.16701999
0.060764 -0.028285 0.16556001
0.059730001 -0.0066228001 0.14509
0.060658999 -0.0065905 0.14453
0.059847999 -0.0072690002 0.146
0.024343999 -0.054733001 0.24642999
0.013506 -0.090193003 0.21178
0.071089998 -0.028579 0.16064
0.071111999 -0.029329 0.16175
0.060896002 -0.019188 0.15647
0.060031001 -0.019001 0.15693
0.075162001 -0.030645 0.17179
0.036844 -0.016473999 0.14165001
-0.0015365999 -0.0093524 0.16276
0.0032398 0.0097465003 0.161
0.0037062 0.010636 0.16166
0.045664001 0.028636999 0.15121
0.046022002 0.027486 0.15008999
0.025276 -0.018227 0.14911
0.025845001 -0.016288999 0.1481
0.026241999 -0.018209999 0.149
0.068028003 -0.030493001 0.16508999
0.065871 -0.0084822997 0.14432999
0.065419003 -0.0067063998 0.14361
0.069238998 -0.030874999 0.16727
0.063872002 0.034063999 0.14740001
0.064568996 0.032584 0.14749999
0.063221 0.033500999 0.14756
0.059443999 -0.022795999 0.15970001
0.060520999 -0.022640999 0.15956999
0.059870001 -0.023907 0.16041
0.073305003 -0.027322 0.18444
0.045028999 -0.0061301999 0.13779999
0.045685999 -0.0059382999 0.13976
0.031048 -0.014659 0.13733999
0.054230999 -0.0064626001 0.1477
0.053509999 -0.0059163002 0.14779
0.016055999 0.040777002 0.16378
0.060802002 -0.020687001 0.15745001
0.060320999 -0.020752 0.15787999
0.048599001 -0.0070612002 0.13327999
0.018113 -0.089461997 0.19146
0.018169999 -0.088656999 0.18986
0.058846999 -0.0062918998 0.14509
0.059030998 -0.0070560002 0.14657
0.070697002 -0.02689 0.15839
0.071923003 -0.031107999 0.17225
0.072555996 -0.030464999 0.17366999
0.071268 -0.030507 0.17421
0.062061999 -0.018392 0.15556
0.062889002 -0.018540001 0.155
0.062027998 -0.019771 0.15626
0.061859 -0.026869999 0.16185001
0.063027002 -0.026978999 0.16125
0.062238 -0.02778 0.16277
0.050315998 -0.0067984001 0.13172001
0.050675999 -0.0066046999 0.13313
0.049054999 -0.0065815002 0.13185
0.069123 -0.028933 0.16055
0.067809001 -0.029095 0.1608
0.067980997 -0.028279001 0.15961
0.053606998 -0.0070536002 0.13248
0.022123 -0.019525999 0.12650999
0.02108 -0.019169999 0.12677
0.020958999 -0.018959001 0.12512
0.065251 -0.029278001 0.16287
0.0038626001 0.0087069999 0.16187
-0.0068020001 -0.057225998 0.20789
-0.0063785999 -0.056495 0.20852999
-0.0065473998 -0.055791002 0.20744
0.037939999 -0.031762999 0.15166
0.066272996 -0.025149999 0.15719999
0.066234998 -0.02609 0.15802
0.065421999 -0.026023 0.15824001
0.066486001 -0.027246 0.15877999
0.066106997 -0.026954001 0.15917
0.026378 0.015313 0.14105999
0.027687 0.015229 0.14003
0.027186001 0.014001 0.141
0.068856999 0.044434 0.21831
0.067296997 0.045515999 0.21664
0.061347999 -0.022042001 0.15792
0.060515001 -0.022147 0.15863
-0.0095007997 -0.017538 0.19131
-0.012478 -0.049998 0.24611001
-0.01212 -0.05068 0.24721
0.040835001 -0.035161 0.28556001
0.040830001 -0.034150999 0.28444999
0.040442999 -0.036102001 0.28512001
0.070771001 -0.031071 0.17219
0.051690999 -0.0068880999 0.12808
0.052710999 -0.0069225002 0.12800001
0.05215 -0.0070274998 0.12958001
0.062488001 -0.02503 0.15929
0.063754998 -0.025287 0.15941
0.062737003 -0.025829 0.16031
0.057103999 -0.019593 0.1586
0.057743002 -0.021131 0.15949
-0.0021865999 0.016863 0.15351
-0.011622 -0.025947999 0.19065
-0.012127 -0.026764 0.19014999
0.074119002 -0.030644 0.17196
0.074118003 -0.030376 0.17388999
0.055594001 -0.0048857001 0.14471
0.055899002 -0.0059110001 0.14608
0.055084001 -0.0059122001 0.14622
0.054368 -0.0071852002 0.14889
0.054845002 -0.0081749996 0.14952999
0.021939 -0.019389 0.12482
0.050423998 0.012415 0.13823
0.049644999 0.013443 0.13940001
0.027989 -0.018583 0.11969
0.028054001 -0.018587001 0.1205
0.027218999 -0.01897 0.12087
0.027229 -0.018519999 0.11991
0.028441001 -0.019231001 0.12211
0.027228 -0.019556999 0.1221
0.067798004 -0.029686 0.17732
0.062265001 -0.015193 0.15216
0.061625998 -0.016107 0.15363
-0.016852999 -0.044546001 0.25433999
0.028527999 -0.019764001 0.12344
0.027345 -0.020096 0.12369
0.065141 -0.023218 0.15676001
0.066141002 -0.023683 0.15657
0.065425999 -0.024939001 0.15719
0.052917 -0.0073148999 0.12972
0.053387001 -0.0072344998 0.13102999
0.052414998 -0.0070938999 0.13132
0.021439999 -0.018777 0.1235
0.020640999 -0.018652 0.12385
0.045798998 -0.0066334 0.13439
0.046103999 -0.0067496002 0.13595
0.044603001 -0.0064937002 0.13473
0.073798001 -0.030889999 0.16998
0.073132999 -0.031008 0.17193
0.056724001 -0.0094132004 0.15036
0.026209 -0.058605999 0.16968
0.063447997 -0.0095038004 0.14729001
0.063679002 -0.0106 0.14827999
0.062707998 -0.010448 0.14868
-0.0015119 -0.0026181 0.1885
-0.00053061999 -0.0018077 0.18861
-0.016321 -0.060628999 0.26218
-0.015790001 -0.061074998 0.26126999
0.025354 -0.049591001 0.24048001
0.053211998 -0.0069117998 0.14909001
0.026841 -0.020736 0.14885999
0.060461 -0.029756 0.16875
0.0014174 -0.00081602001 0.17348
0.037255 -0.021869 0.14789
0.033229999 -0.049775001 0.26629001
0.033911999 -0.050877001 0.26688999
0.040754002 -0.032439999 0.28494999
0.040858999 -0.03269 0.28400001
0.054664999 -0.0056322999 0.13799
-0.015028 -0.061515 0.26102999
0.00092542003 -0.0016622 0.17324001
-0.00037284999 -0.0045817001 0.1693
-0.0012971 -0.0046426998 0.17143001
-6.282e-05 -0.0039065001 0.16941001
0.01512 -0.055728 0.2318
0.028023999 -0.050618 0.25624001
0.028882001 -0.050855 0.25810999
0.066986002 -0.0092022996 0.14534999
0.062688999 -0.028984999 0.16551
0.064208001 -0.030664001 0.17388999
0.031479999 -0.014669 0.13902999
0.030267 -0.014381 0.13775
0.031539001 -0.014619 0.1401
0.069269001 -0.025784001 0.15735
0.067993 -0.025645001 0.15778001
0.032673001 -0.080665998 0.17595001
-0.014149 -0.062183 0.26008999
-0.012519 -0.062862001 0.26018
0.057719 -0.016105 0.15563001
0.032246001 -0.015526 0.14143001
0.069280997 -0.024766 0.15662
0.058093 -0.017449999 0.15673
0.035351999 -0.023684001 0.14896999
0.062109001 -0.0086390004 0.14667
0.063097 -0.0087543996 0.14670999
0.062344 -0.0093865003 0.14783999
0.066922002 -0.016082 0.15079001
0.068075001 -0.016081 0.15069
0.067385003 -0.017137 0.15203001
0.032127 -0.016337 0.14274
0.068411 -0.018229 0.15286
0.067316003 -0.018707 0.15285
0.032244999 -0.017158 0.14342999
0.032407999 -0.018025 0.14472
0.070220999 -0.031230999 0.16756
0.070509002 -0.030906999 0.16885
0.053745002 -0.0037543999 0.14445999
0.052724998 -0.0047002998 0.14590999
0.029251 -0.079239003 0.17454
0.029916 -0.079981998 0.17536999
0.028859001 -0.079915002 0.17542
0.028724 -0.079198003 0.17471001
0.074492 0.017011 0.13459
0.073252998 -0.030444 0.17365
0.039308999 -0.016697999 0.14263999
0.056012001 -0.015596 0.15663999
0.032910001 -0.018828999 0.14606
0.062454 -0.030531 0.16966
0.061333999 -0.030185999 0.16937
0.061344001 -0.029138001 0.16805001
0.025021 -0.016443999 0.14879
0.065869004 -0.028067 0.16024999
0.066044003 -0.028667999 0.1613
0.071401998 -0.029604999 0.16285001
0.071515001 -0.029934 0.1644
0.035115998 0.010652 0.22386
0.034304 0.0088419002 0.22431
0.035273001 0.0098403003 0.22431
0.068910003 -0.021666 0.15530001
-0.0056571998 -0.020911001 0.19904999
0.070794001 -0.018897001 0.15346
0.069526002 -0.018285001 0.15257999
0.032669 -0.019537 0.14666
0.054173 0.030524001 0.22556999
0.066748999 -0.012065 0.14845
-0.0032256001 -0.0050089001 0.19239999
-0.0032323999 -0.0060798 0.19329
-0.0027617 -0.0044800001 0.19303
-0.012526 -0.062941 0.25949001
0.037250999 0.014883 0.22251999
0.019122999 0.039326001 0.16494
0.064195 -0.021514 0.15617
0.064375997 -0.023011001 0.15719999
0.063334003 -0.022502 0.15741
0.059684999 -0.0094108004 0.14984
0.059712 -0.011094 0.15084
0.059021998 -0.010705 0.15104
0.065908 -0.031212 0.17147
0.065748997 -0.030933 0.16979
0.038554002 -0.024354 0.14972
0.038212001 -0.025723999 0.14994
0.059206001 -0.025729001 0.16272999
0.060162999 -0.026029 0.16276
0.059420001 -0.02682 0.16393
-0.001119 -0.067192003 0.24784
0.053916998 -0.0033439 0.12242
0.054623 -0.002569 0.12246
0.026631 0.016742 0.14060999
0.065950997 -0.0092270998 0.14533
0.025161 -0.058145002 0.24816
0.025687 -0.058407001 0.24950001
0.026164999 -0.057046998 0.25029001
0.056704 0.042495001 0.21821
0.057236999 0.041797999 0.21897
0.058346 0.042066 0.21861
0.065456003 -0.030561 0.17367999
0.064632997 -0.030672999 0.17531
0.028297 -0.016189 0.14511999
0.027826 -0.016826 0.14642
0.060523 -0.0081406003 0.14719
0.060860001 -0.0080356998 0.14665
0.060389999 -0.0090501998 0.14837
-0.011017 -0.051895 0.24434
0.040881999 -0.031217 0.28417
0.035567001 -0.018918 0.14512999
0.036663 -0.019145001 0.14478999
0.035941999 -0.019896001 0.14583001
0.056680001 -0.0056294999 0.12666
0.046758998 -0.0061638001 0.12929
0.046101999 -0.0066216001 0.12929
-0.0047777002 -0.020342 0.19932
0.025852 -0.050487999 0.15651
0.024819 -0.050951 0.15637
0.0050758002 -0.0045631998 0.16114999
0.0045351 -0.0044845999 0.16197
0.0065533998 -0.044817999 0.22048
0.027487 -0.058784999 0.16959
0.066242002 -0.030841 0.17310999
0.038035002 -0.017159 0.14234
0.038325999 -0.018186999 0.14331
-0.0057998002 -0.023739001 0.19859999
-0.0055670999 -0.022798 0.1991
0.064236999 -0.024258001 0.1577
0.063295998 -0.024039 0.15854999
-0.010241 -0.063662998 0.25558999
0.0002142 -0.068007998 0.24331
-0.0051038 -0.023514001 0.20027
0.094260998 0.047938 0.16192999
0.093583003 0.047392 0.16097
0.092992 0.048875 0.1612
0.036497999 -0.045453999 0.27349001
0.035969999 -0.04634 0.27173001
0.0084066996 -0.037928998 0.21547
0.0087448005 -0.038849 0.21693
0.0099878004 -0.038291998 0.21628
0.033388 -0.041793 0.26317999
0.041166 -0.030246999 0.28183001
0.056441002 -0.011602 0.15245999
0.055452 -0.0071496 0.14848
0.057994001 -0.018720999 0.15773
-0.0091955001 -0.063970998 0.25516999
-0.0093665998 -0.063741997 0.25479001
0.065613002 -0.030462001 0.16851
0.064066999 -0.029972 0.16733
0.048385002 -0.0055709998 0.12596001
0.079558998 0.060484 0.16705
0.078870997 0.059877999 0.16592
0.028487001 -0.049013 0.15515
0.029324999 -0.050135002 0.15629999
0.027435999 -0.045701999 0.15305001
0.025931999 -0.045995001 0.15312999
0.027194001 -0.047127001 0.15358
0.027604001 -0.047968 0.15476
0.026229 -0.047286998 0.15375
0.026342001 -0.048425999 0.15463001
0.024411 -0.063819997 0.24041
0.018627999 -0.017906001 0.12462
0.017596001 -0.017255999 0.12348
0.061739001 -0.028555 0.16548
0.051272999 -0.0061917999 0.13679001
0.051341001 -0.0057739001 0.13842
0.050753001 -0.0062171002 0.13866
0.067091003 -0.028742 0.16095001
0.067227997 -0.029276 0.16253
0.028651999 -0.050135002 0.15656
-0.0080562001 -0.064668998 0.25459
0.060240999 -0.027127 0.16351999
0.053785 -0.006579 0.12797999
0.028448001 -0.049022999 0.25577
0.027874 -0.049646001 0.25516
0.028532 -0.049518999 0.25705001
0.070776999 -0.027714999 0.15936001
0.069684997 -0.027876001 0.15943
0.069601998 -0.027112 0.15827
-0.019533001 -0.044275999 0.28226
-0.019462001 -0.044934999 0.28382
-0.019555001 -0.043235 0.28345001
0.028119 -0.051091999 0.15725
0.027053 -0.051171001 0.1573
0.026905 -0.050494 0.15620001
0.026512999 -0.01973 0.12223
0.026578 -0.02032 0.12364
0.072499998 -0.030676 0.1689
0.062337 -0.022394 0.15791
0.070426002 -0.025668001 0.15727
0.02507 0.027609 0.15488
0.024225 0.027341001 0.15467
0.023757 0.028517 0.15534
0.014477 0.0068719001 0.20749
0.060823999 -0.0075643002 0.14567
0.0019107 -0.058983002 0.22590999
0.0011684 -0.058518998 0.22429
0.071909003 -0.030346001 0.16593
0.028082 -0.050466999 0.15637
0.026868001 -0.049431 0.15552001
0.02837 -0.051986001 0.15855999
0.026237 -0.019238001 0.121
0.026078001 -0.018546 0.11951
0.037138999 -0.018127 0.14380001
0.071010001 -0.030688001 0.16599
0.043343998 -0.0057060998 0.12869
0.042458002 -0.0050542001 0.12771
0.024515999 -0.01709 0.11814
0.025603 -0.017759999 0.11849
0.024914 -0.017578 0.11861
-0.0088079004 -0.020176999 0.19273999
0.037055999 -0.044865999 0.27392
0.037558999 -0.045979001 0.27443999
0.037903 -0.044932 0.27509999
-0.003856 -0.066445 0.25075001
0.060017001 -0.0044562998 0.12703
0.061547 -0.0092829997 0.14799
0.061717998 -0.010038 0.14893
0.060717002 -0.010081 0.14906999
0.0031934001 0.0043373001 0.16263001
0.0032087001 0.0055366 0.16319001
0.027983001 -0.049371999 0.15527999
0.062983997 -0.012607 0.15041
0.063993998 -0.013069 0.15023001
0.063124999 -0.013909 0.15115
0.068285003 -0.01192 0.14821
0.068479002 -0.013129 0.14915
0.067659996 -0.012091 0.14849
0.058506999 -0.022634 0.15975
0.058935001 -0.023751 0.16107
0.057879001 -0.02382 0.16125999
0.025714001 0.039615002 0.16414
0.013391 0.013574 0.17892
0.066246003 -0.016867001 0.15175
0.036353 0.054997001 0.16779999
0.037439 0.055289999 0.16806
0.037021998 0.05387 0.1681
0.024900001 -0.013741 0.14698
0.0055509 -0.050930001 0.22485
0.051182002 -0.0052816002 0.14752001
0.058099002 -0.02431 0.16209
0.059138 -0.024674 0.16185001
0.057982001 -0.025495 0.16316999
0.050515 -0.0068131001 0.12830999
0.049713001 -0.0068215001 0.12864999
0.049794 -0.0065465001 0.12702
0.051658001 -0.0036567999 0.14474
0.056837998 -0.021895999 0.16051
0.062889002 -0.0076954002 0.14511999
0.022353999 -0.01987 0.14951999
0.020871 -0.018817 0.1497
0.021155 -0.015726 0.14972
0.062735997 -0.0069615999 0.14397
0.057597999 -0.022685001 0.16044
0.058357999 -0.0077908002 0.14749999
0.058389999 -0.021317 0.15894
0.046913002 -0.0070055001 0.13574
0.046567 -0.0069014998 0.13414
0.083103999 0.049187999 0.15749
-0.0039400999 -0.066257998 0.24913
-0.0049987002 -0.065755002 0.24969
-0.0055506998 -0.065505996 0.24787
0.032832999 -0.052501 0.26431999
-0.0080321003 -0.030400001 0.19741
-0.0084811002 -0.031528 0.19705001
-0.0074669002 -0.031599998 0.19823
0.065714002 -0.029588001 0.16389
0.048427001 -0.0062914998 0.12757
0.035319 -0.016329 0.14182
0.065931998 -0.030410999 0.16548
0.058208998 -0.01298 0.15286
0.058552001 -0.014118 0.15374
0.052053999 -0.0061633 0.13674
0.070422001 -0.029270999 0.16164
0.070445001 -0.029552 0.16319001
0.069650002 -0.019572999 0.15328
-0.0033555001 -0.066388004 0.24869999
0.062022001 -0.0075699999 0.14537001
0.062593997 -0.017344 0.1541
0.048197001 -0.0066856002 0.13062
0.064438 -0.025765 0.15836
0.0084231999 0.021274 0.2078
0.028692 -0.04775 0.25597
0.059824999 -0.025272001 0.16126999
-0.0050428002 -0.018742001 0.19887
-0.0051350002 -0.019091001 0.19836999
-0.0040664999 -0.019617001 0.19977
-0.0036187 -0.066362001 0.24672
-0.0021599999 -0.066855997 0.24817
-0.0027528 -0.067074999 0.24642999
0.048237 -0.006693 0.132
0.063519001 -0.026412001 0.15999
0.067190997 -0.010158 0.14631
0.0056159999 -0.070454001 0.23254
0.067364 -0.011018 0.14707001
0.058095001 -0.011449 0.15208
0.063285001 -0.030059 0.16756
0.063553996 -0.030645 0.16914
0.062243 -0.029879 0.16801
0.02555 -0.049564 0.15559
0.024599999 -0.049812999 0.15557
0.024465 -0.048847999 0.15474001
0.030979 -0.06075 0.25395
0.032366 -0.061092999 0.25321999
-0.0017215 -0.067450002 0.24439
-0.0013307 -0.067165002 0.24587999
0.016737999 -0.042778 0.15102001
0.017789001 -0.042546 0.15064999
0.017814999 -0.043501999 0.15125
0.049185 -0.0068325 0.13698
0.049648002 -0.0061149001 0.13902
0.048075002 -0.0066292998 0.13697
0.065814003 -0.021786001 0.1556
0.062624 -0.011021 0.14956
0.056031 -0.0051759998 0.12483
0.066353999 -0.029034 0.16283999
0.065145999 -0.028379999 0.16187
0.045529999 -0.0041395002 0.12583999
0.023073999 -0.01521 0.14918999
0.024169 -0.015745999 0.14926
0.023034999 -0.018697999 0.14937
0.014662 -0.060299002 0.23424999
0.026458001 0.040174 0.16423
0.024083 -0.046709001 0.15301999
0.025682 -0.048576999 0.15445
-0.00083509 -0.067468002 0.24367
0.044202 0.026325 0.14974999
0.060888998 -0.025591001 0.16095001
0.066073999 -0.01348 0.14967
0.066597998 -0.013559 0.14924
0.066114001 -0.014479 0.15007
0.061351001 -0.026333001 0.16195001
0.069724999 -0.031362999 0.17059
0.068901002 -0.031214001 0.17072
0.042100001 -0.0055594002 0.12928
0.049554002 -0.0069756 0.1336
0.062889002 -0.029554 0.16638
0.049924001 -0.0070022 0.13016
0.048926 -0.0069272001 0.13033
0.048785001 -0.0064082998 0.12909
0.043524999 -0.0065572001 0.13502
0.043345001 -0.0062616998 0.13332
0.057466999 -0.01509 0.15504
0.052409999 -0.0065967999 0.12657
0.0040874002 -0.0023216 0.16320001
0.0037956 -0.0034272 0.1637
0.043217 -0.0064745001 0.13157
0.059289999 -0.021426 0.15902001
0.063741997 -0.030663 0.17056
0.063836999 -0.030995 0.17202
0.012445 -0.0028993001 0.14246
0.029170999 -0.018106 0.11912
0.02908 -0.019048 0.12063
0.064447001 -0.030565999 0.16873001
0.064754002 -0.030844999 0.17038999
0.014354 0.046220999 0.16479
0.013496 0.045793001 0.16474999
0.013217 0.047122002 0.16574
0.028558001 -0.045170002 0.25038001
0.024418 -0.047651 0.15395001
0.025618 -0.047527999 0.15376
-0.0088427002 -0.00058548001 0.13738
-0.0097134002 -0.00023141 0.13853
-0.010446 5.7976002e-05 0.13855
0.03145 -0.059746999 0.25584999
0.030441999 -0.060249001 0.25465
0.022947 -0.012283 0.14843
0.022046 -0.011326 0.14912
0.021322999 -0.054251 0.15981001
0.020397 -0.055101 0.15979999
0.020187 -0.053980999 0.15848
0.050887998 0.020640001 0.14399999
0.050186999 0.020085 0.14368001
0.049625002 0.021407001 0.14478999
0.029541999 -0.019176999 0.12188
0.084859997 -0.020742999 0.18414
0.070738003 -0.030136 0.16455001
0.018385001 -0.091380998 0.20874
0.019425999 -0.091302 0.2086
0.066453002 -0.029811 0.16396999
0.059700001 -0.028293001 0.16614
0.065100998 -0.021823 0.15581
0.059491001 -0.02758 0.16494
0.071091004 -0.0077724 0.14551
0.036419 -0.043651 0.27302
0.026446 -0.057951 0.16631
0.032834001 -0.015509 0.14151999
0.032838002 -0.016633 0.14226
0.033392999 -0.017502001 0.14320999
0.051385 -0.0064062001 0.13523
0.050154999 -0.0063479999 0.1367
0.052191999 -0.0059356 0.12566
0.051252 -0.0060223001 0.12543
0.050909001 -0.0048977998 0.12457
0.03514 -0.02179 0.14782999
0.062058002 -0.01262 0.15113001
0.023429999 -0.048953 0.15478
0.023557 -0.048136 0.15392999
0.023288 -0.046755001 0.15306
0.067086004 -0.026419001 0.15790001
0.00061341998 -0.067942999 0.2414
0.00037023 -0.067497998 0.23980001
0.065084003 -0.010052 0.14681
0.033592001 -0.018095 0.14444
0.033665001 -0.018897999 0.14562
0.033624999 -0.019644 0.14670999
0.046627 -0.0059147999 0.12797
0.058708001 -0.0053603002 0.14415
0.030204 -0.081837997 0.17748
-0.0018887999 -0.065534003 0.23942
-0.00079222 -0.028696001 0.2067
-0.00083254999 -0.027589999 0.20778
-0.0061639999 -0.017038001 0.19649
-0.0053134002 -0.017306 0.19805001
0.029239999 -0.076894 0.17339
0.031629 -0.079797998 0.17524999
0.030634999 -0.080041997 0.17524
-0.010911 -0.014944 0.18638
-0.010318 -0.014059 0.18688001
0.064098999 -0.014085 0.15083
0.060624 -0.024212999 0.16029
0.0046939999 -0.0063133999 0.16065
0.0055963998 -0.0060943998 0.15983
0.0061909002 -0.0064544999 0.15922999
0.036256 -0.023208 0.14896999
0.036164001 -0.023971001 0.14926
0.058506001 -0.015354 0.15453
0.056524001 -0.014898 0.15555
0.055087999 -0.0093026999 0.15082
0.055874001 -0.0095749004 0.15069
0.056265 -0.014505 0.15530001
0.055544 -0.0083549004 0.1496
0.069095999 -0.030781999 0.17273
0.069463998 -0.03053 0.17431
0.069865003 -0.029611999 0.17670999
0.028372001 -0.077372 0.17392001
-0.0034803001 -0.021159999 0.20228
-0.0040230998 -0.020447001 0.2007
-0.00037148999 -0.066601001 0.23827
0.00039673 -0.067552999 0.23851
-0.00037033 -0.066416003 0.2376
0.0011057 -0.067714997 0.23827
0.0010223 -0.068246 0.2392
-0.013024 -0.062451001 0.25981
0.054155 -0.0070197 0.12925
0.051155001 -0.0069983001 0.13121
0.051306002 -0.0068203001 0.13314
0.043590002 -0.00526 0.12758
0.044374999 -0.0058344998 0.12853999
0.023841999 -0.013036 0.14783999
0.062254 -0.021118 0.15707999
0.052825999 -0.0061956001 0.13481
0.053404 -0.0063024 0.13663
0.051991001 -0.0062545999 0.13512
0.045467999 0.020912001 0.14507
0.023877 -0.014168 0.14839999
0.023023 -0.013435 0.14923
0.027393 0.0022042999 0.22221
0.028573001 0.0021923999 0.22294
-0.0028172999 0.02688 0.15559
-0.002906 0.026984001 0.15669
-0.0032992 0.028349999 0.15654001
0.0077251 0.021145999 0.20492999
0.0077928002 0.019459 0.20418
0.0080551002 0.018866999 0.2051
0.016308 0.0033111 0.21101999
-0.0093798004 -0.016736999 0.19023
-0.010103 -0.017207 0.18956999
0.0084370002 0.0045102001 0.19316
0.0085573001 0.0040572002 0.19496
0.0090218 0.0046219002 0.19497
-0.0029758001 -0.0035722 0.19148999
0.0027965 0.0043470999 0.16087
-6.6018998e-05 -0.021274 0.20665
0.00028350999 -0.022317 0.20771
0.00097325997 -0.021458 0.20807
0.030153001 -0.018750001 0.12077
0.0026851001 0.0014142999 0.16934
0.02434 -0.053440001 0.15827
0.0094507001 -0.018045001 0.21466
0.010157 -0.017211 0.2145
0.052724 -0.0068462002 0.13278
0.06247 -0.015851 0.15323
0.032906 -0.061266001 0.25279
-0.0069765998 -0.047226999 0.24383
0.070203997 -0.031055 0.1724
0.025959 -0.020726999 0.12497
0.026265999 -0.020498 0.12651999
0.025462 -0.02021 0.12349
0.022926999 -0.019553 0.12453
0.023250001 -0.019765001 0.12583999
0.025664 -0.019812999 0.12239
0.00059795001 -0.067273997 0.23654
0.00013712001 -0.065998003 0.23672
0.057658002 -0.0063851001 0.14548001
0.0021813 -0.068666004 0.23889001
0.0021059001 -0.068246998 0.23740999
0.025765 0.016323 0.14116
0.052549999 -0.0059926999 0.13828
0.069853999 -0.028561 0.16065
0.022049 -0.013003 0.14951
0.022089999 -0.015830001 0.14978001
0.021974999 0.046766002 0.16457
0.060513999 0.047568999 0.21312
0.059629001 0.048694 0.21201999
0.058906 0.048273999 0.21246
-0.0030755 0.016522 0.15245
-0.0038854999 0.015958 0.15152
-0.0032627999 0.015457 0.15244
0.013949 0.0064969002 0.20671999
-0.0081276 -0.0096239001 0.18606
-0.0074271001 -0.0092091998 0.18652
-0.0074566002 -0.0083192 0.18505
0.033723 -0.043595001 0.26605999
0.014827 0.0062468001 0.20839
0.015782 0.004071 0.21015
0.00025633001 -0.020478001 0.20721
-0.0098019997 -0.015479 0.18917
-0.010223 -0.016431 0.18877999
0.039027002 -0.041517999 0.27958
0.039545 -0.043554999 0.27985999
0.0073060002 -0.001627 0.2035
0.0076758 -0.0013080999 0.20412999
0.0075567998 -0.00068385003 0.20287
0.066881001 -0.014335 0.14991
0.067961 -0.014675 0.14997999
0.051307999 -0.0066608 0.12684
0.070009001 -0.030576 0.16615
0.029165 -0.048790999 0.25727999
0.025209 -0.019158 0.12119
0.047717001 -0.0065207998 0.12921999
0.047752999 -0.0058412999 0.12796
0.055252001 -0.0066088 0.1473
0.024836 -0.056533001 0.24731
0.029997 -0.019445 0.14767
0.029465999 -0.016464001 0.1445
0.028929001 -0.014831 0.1428
0.028952001 -0.015496 0.14354999
0.028716 -0.014209 0.14121
0.065691002 -0.019343 0.15401
0.064634003 -0.020321 0.15504999
0.046487998 -0.0061300001 0.13789999
0.046580002 -0.0058386 0.13940001
0.061666999 -0.0069471998 0.14455999
0.065821998 -0.016019 0.15132999
0.065347001 -0.01674 0.15228
0.029432001 -0.049982 0.25845
0.029093999 -0.019246999 0.14786001
0.071175002 -0.028263001 0.1789
0.0015318 -0.067888997 0.23666
0.0055104 -0.047014002 0.15703
0.016609 -0.046278 0.22491001
0.068830997 -0.028200001 0.15955999
0.068778999 -0.027233001 0.15845001
0.05336 -0.0051127998 0.14678
0.023675 -0.050324999 0.15536
0.029781001 -0.091681004 0.19281
0.030143 -0.091493003 0.19452
0.052048001 -0.0052463999 0.14712
0.059397999 -0.0079599004 0.14740001
0.059390999 -0.0088031003 0.14843
0.061448 -0.025768001 0.16055
0.052032001 -0.0044757002 0.14601
0.066831 -0.028047999 0.15978
0.063885003 -0.011506 0.14934
0.068406999 -0.017354 0.15164
0.019252 0.050595 0.16693
0.018348999 0.05006 0.16665
0.017651999 0.050381001 0.1689
0.028484 0.01286 0.13885
0.029790999 -0.018116999 0.14662001
0.029758999 -0.017283 0.14585
0.057206001 -0.011579 0.15211999
0.052765999 0.060074002 0.19159999
0.068639003 -0.018983999 0.15343
0.067285001 -0.01953 0.15346
0.026787 -0.019804001 0.13033
0.026442001 -0.02036 0.12813
0.023158999 -0.044105999 0.15155999
-0.018367 -0.042187002 0.25839999
-0.018497 -0.042617001 0.25953001
0.057427 -0.00091882999 0.12268
0.0029235 -0.045926001 0.21816
0.0026 -0.068219997 0.23639999
0.0647 -0.030919001 0.17192
0.029953999 -0.017676 0.11963
0.064493001 -0.010692 0.14809
0.0075478 0.024267999 0.20093
0.0079042995 0.025688 0.20017
0.029863 -0.080856003 0.17654
0.023812 -0.051102001 0.15648
0.029208001 -0.091179997 0.18985
0.030261001 -0.091176003 0.18948001
0.029836001 -0.091146998 0.19124
0.0011958 -0.057124 0.22294
0.035659999 0.042126998 0.16391
0.03624 0.040438 0.16276
0.035007 0.041173998 0.16329999
0.04713 0.012075 0.13867
0.047426 0.010709 0.13758001
0.046372 0.011912 0.13826001
0.026849 -0.017173 0.14771
0.067869999 -0.021965001 0.15516999
0.066962004 -0.022002 0.15542001
0.016599 -0.016423 0.12405
0.01688 -0.017043 0.12542
0.015749 -0.015433 0.12488
0.017275 -0.017065 0.12706999
0.016210999 -0.016206 0.12296
0.015193 -0.015366 0.12336
0.016022 -0.015541 0.12646
0.036068 -0.0080027999 0.12174
0.036722999 -0.0092452997 0.1212
0.014266 -0.013934 0.1228
0.015119 -0.012654 0.12207
0.014835 -0.015023 0.12226
0.028271999 -0.08275 0.17748
0.027956 -0.083678 0.17804
0.027053 -0.083586998 0.17703
